ply
format ascii 1.0
comment Generated by the ZED SDK.
element vertex 690
property float32 x
property float32 y
property float32 z
property float32 nx
property float32 ny
property float32 nz
property uchar red
property uchar green
property uchar blue
end_header
0.590106 -0.266667 -0.679181 -0.132402 0.964479 0.228581 88 64 29
0.592263 -0.263333 -0.679195 -0.34168 0.916004 0.210216 89 64 29
0.595596 -0.263333 -0.680383 -0.30434 0.933979 0.187243 91 65 28
0.596773 -0.266667 -0.680952 -0.173398 0.983326 0.0547959 90 65 29
0.606667 -0.266667 -0.682242 -0.0697384 0.997355 -0.0205068 91 65 30
0.603333 -0.263333 -0.681823 -0.144452 0.987979 0.0550552 92 65 29
0.616667 -0.266667 -0.683347 -0.161357 0.985894 0.0444537 91 64 28
0.613333 -0.263333 -0.68287 -0.097527 0.995023 -0.0204589 91 64 29
0.626667 -0.266667 -0.683899 0.00320214 0.999313 0.0369238 90 63 27
0.623333 -0.263333 -0.683759 -0.00493115 0.998973 0.0450434 90 63 27
0.636667 -0.266667 -0.68444 -0.046101 0.998275 -0.0363675 92 64 27
0.633333 -0.263333 -0.684163 -0.118635 0.992261 0.0366632 91 64 27
0.589737 -0.253333 -0.679064 0.438864 0.880753 -0.177969 90 64 28
0.586817 -0.256667 -0.679195 0.259848 0.943168 -0.207156 88 64 30
0.592157 -0.256667 -0.679064 -0.34339 0.920587 -0.186018 90 64 28
0.592471 -0.253333 -0.679869 -0.377077 0.902401 -0.208531 91 64 28
0.583483 -0.256667 -0.68025 0.478163 0.79123 -0.381201 85 65 32
0.58307 -0.253333 -0.682203 0.49295 0.774685 -0.39606 85 65 33
0.595804 -0.253333 -0.681233 -0.370048 0.906193 -0.204644 91 64 27
0.598824 -0.256667 -0.681616 -0.3011 0.924036 -0.235577 92 65 27
0.606667 -0.256667 -0.682529 -0.143642 0.98244 -0.119072 93 65 28
0.603333 -0.253333 -0.682891 -0.0120791 0.968934 -0.247024 93 65 28
0.616667 -0.256667 -0.683578 -0.0971259 0.99093 -0.0928619 91 64 28
0.613333 -0.253333 -0.683655 -0.0698428 0.990311 -0.120026 92 64 28
0.626667 -0.256667 -0.68366 -0.00493588 0.999932 -0.0105813 90 64 27
0.623333 -0.253333 -0.683956 0.0776177 0.992634 -0.0930216 91 64 27
0.636667 -0.256667 -0.684386 -0.1187 0.992807 0.0156565 93 65 28
0.633333 -0.253333 -0.684023 -0.0928009 0.995629 -0.0105357 92 64 28
0.589737 -0.249277 -0.679869 0.44023 0.883493 -0.160118 90 64 28
0.590314 -0.249277 -0.679869 -0.380273 0.91005 -0.164931 90 64 28
0.586404 -0.249277 -0.681954 0.526901 0.828039 -0.191642 88 64 31
0.586667 -0.245944 -0.682505 0.525895 0.832183 -0.175802 88 64 31
0.583333 -0.243333 -0.683243 0.0523488 0.938126 0.342314 86 65 33
0.590314 -0.245944 -0.680551 -0.430204 0.883238 -0.186587 90 64 28
0.593647 -0.246667 -0.681785 -0.371491 0.909727 -0.185446 91 64 27
0.596667 -0.243333 -0.682648 -0.0927254 0.989635 0.109661 92 64 27
0.606667 -0.246667 -0.683988 -0.0124417 0.998019 -0.0616681 93 65 28
0.603333 -0.243333 -0.683578 -0.180905 0.977517 0.108318 93 65 28
0.616667 -0.246667 -0.684004 -0.0700874 0.993779 0.0865478 92 64 27
0.613333 -0.243333 -0.683975 0.0779667 0.995058 -0.0614851 93 65 28
0.626667 -0.246667 -0.684331 0.0775944 0.992336 -0.0961659 91 63 27
0.623333 -0.243333 -0.684301 -0.104825 0.990741 0.0862831 91 63 27
0.636667 -0.246667 -0.684419 -0.0927958 0.995574 -0.0148798 93 65 27
0.633333 -0.243333 -0.684431 -0.0111926 0.995275 -0.0964507 92 64 27
0.00543732 0.0579893 -0.639899 -0.0480368 0.998414 -0.0293705 43 44 43
0.00666667 0.054656 -0.639859 -0.0482157 0.998396 -0.0296679 43 44 42
0.00333333 0.0533333 -0.639632 -0.0562139 0.997707 -0.0376789 44 45 44
0.0101943 0.0513227 -0.639961 -0.198226 0.979724 -0.0291131 42 43 41
0.0701025 0.0599618 -0.639982 -0.159788 0.888967 0.429192 44 45 44
0.00877065 0.0655032 -0.639964 -0.055023 0.997998 0.0311733 43 44 43
0.00543732 0.0633333 -0.639862 -0.0480379 0.998436 0.0286019 43 44 43
0.00333333 0.0666667 -0.639459 -0.108956 0.989992 0.0896848 44 45 44
0.0166667 0.0669585 -0.639828 0.0195796 0.995629 0.0913259 40 41 39
0.0133333 0.0688365 -0.639791 0.0407254 0.998683 0.0311947 41 42 41
0.0266667 0.0652098 -0.639826 0.0184688 0.998055 0.0595396 37 38 36
0.0233333 0.0681219 -0.639654 0.000433057 0.995819 0.0913434 38 39 38
0.0366667 0.0664691 -0.639915 -0.0935096 0.986297 0.135922 35 35 35
0.0333333 0.0670879 -0.639741 -0.0264749 0.997875 0.0595288 36 37 36
0.0447123 0.0627145 -0.63967 0.165974 0.982519 0.0843135 32 32 31
0.0433333 0.0660478 -0.639585 0.204853 0.969629 0.133625 34 34 34
0.0466667 0.0666667 -0.639445 0.01618 0.998235 -0.0571499 36 36 35
0.058785 0.0657531 -0.639882 -0.24667 0.961151 0.123863 40 40 40
0.0554516 0.0633333 -0.639552 -0.153364 0.984002 0.0906588 36 37 36
0.0533333 0.0666667 -0.639413 -0.00646282 0.998344 -0.0571562 38 38 38
0.0698178 0.0602756 -0.639982 0.100364 0.992734 -0.066372 44 45 44
0.0612347 0.0690864 -0.639882 -0.094151 0.987393 0.127245 42 42 43
0.0701025 0.0602756 -0.639982 -0.176529 0.982103 -0.0656612 44 45 44
0.00666667 0.0733333 -0.638664 -0.105969 0.962851 0.248371 43 45 43
0.00333333 0.0766667 -0.638041 0.0705527 0.994567 0.0765396 43 44 43
0.0166667 0.0733333 -0.638986 0.0400309 0.981652 0.18643 39 40 39
0.0133333 0.0766667 -0.638262 -0.0263866 0.967966 0.24969 40 41 39
0.0266667 0.0733333 -0.639327 0.000434416 0.998944 0.0459452 38 39 38
0.0233333 0.0766667 -0.638695 -0.139586 0.972822 0.184753 38 39 38
0.0366667 0.0733333 -0.639685 -0.0265209 0.999609 -0.00883139 38 39 38
0.0333333 0.0766667 -0.639443 -0.0810068 0.995661 0.0457942 39 40 39
0.0466667 0.0733333 -0.639609 0.016206 0.999836 0.00812778 40 39 39
0.0433333 0.0766667 -0.639692 0.0331531 0.999411 -0.00882964 40 40 40
0.0542075 0.0773345 -0.639834 -0.184284 0.968056 -0.17002 43 41 42
0.0566667 0.0740012 -0.639716 -0.184753 0.967861 -0.17062 42 42 43
0.0533333 0.0733333 -0.639576 -0.00647319 0.999946 0.00812868 42 41 42
0.0612347 0.0706679 -0.639882 -0.0934938 0.980501 -0.172848 42 42 43
-0.162503 0.238682 -0.640046 -0.0181708 0.999239 -0.0345199 167 174 170
-0.0733333 0.403333 -0.645229 -0.0654642 0.997735 -0.0154602 160 167 164
-0.0766667 0.406667 -0.644866 -0.123502 0.991408 0.0430912 154 161 158
-0.0633333 0.403333 -0.646068 -0.103279 0.994634 0.00600247 158 165 162
-0.0666667 0.406667 -0.645774 -0.0820188 0.996511 -0.0154412 155 162 159
-0.0533333 0.403333 -0.647002 -0.0736409 0.997032 -0.0224627 163 170 166
-0.0566667 0.406667 -0.646736 -0.10189 0.994778 0.00600333 158 165 161
-0.0433333 0.403333 -0.647669 -0.0406765 0.996923 -0.0670081 164 171 169
-0.0466667 0.406667 -0.647608 -0.0851552 0.996115 -0.0224421 163 169 167
-0.0333333 0.403333 -0.648051 -0.0447577 0.9977 -0.050908 162 169 166
-0.0366667 0.406667 -0.648125 -0.028595 0.997341 -0.0670362 159 166 164
-0.0233333 0.403333 -0.649003 -0.124101 0.991415 -0.0411627 161 167 164
-0.0266667 0.406667 -0.648756 -0.114756 0.992103 -0.0506224 155 162 159
-0.0171004 0.403333 -0.64966 -0.0822252 0.995756 -0.041343 161 167 164
-0.015689 0.406667 -0.649899 -0.0713694 0.996941 -0.0318639 156 162 159
-0.0123557 0.406667 -0.650139 -0.072048 0.996882 -0.0321668 156 162 160
-0.0104337 0.403333 -0.650174 -0.080785 0.996249 -0.0310036 161 168 165
-0.00333333 0.403333 -0.650534 -0.0519313 0.998348 -0.0245642 164 170 168
-0.00666667 0.406667 -0.650465 -0.0454327 0.998484 -0.0310731 158 164 161
-0.0733333 0.413333 -0.64507 -0.123593 0.992138 0.0196729 154 160 158
-0.0766667 0.416667 -0.644734 -0.0805932 0.996463 -0.0237803 159 165 163
-0.0633333 0.413333 -0.646027 -0.082009 0.996393 0.0218022 156 162 160
-0.0666667 0.416667 -0.645687 -0.0799808 0.996601 0.0197614 161 166 164
-0.0533333 0.413333 -0.646781 -0.101547 0.991429 0.0822055 162 168 165
-0.0566667 0.416667 -0.646366 -0.0413442 0.998906 0.0218572 163 169 167
-0.0433333 0.413333 -0.647855 -0.0851275 0.995791 0.0339674 162 168 166
-0.0466667 0.416667 -0.647294 -0.132651 0.987773 0.0819025 166 172 170
-0.0333333 0.413333 -0.648483 -0.0286576 0.999523 -0.0115225 157 164 161
-0.0366667 0.416667 -0.648274 -0.0740631 0.996674 0.0339976 161 168 166
-0.0233333 0.413333 -0.649402 -0.114861 0.99301 -0.0271753 153 159 156
-0.0266667 0.416667 -0.649055 -0.130377 0.991399 -0.0114289 157 163 161
-0.0185886 0.413333 -0.649889 -0.0713791 0.997076 -0.0272866 153 158 156
-0.0184139 0.416667 -0.64999 -0.0560839 0.998209 -0.0208071 155 161 159
-0.0150806 0.416667 -0.650174 -0.0548407 0.998288 -0.0203459 157 163 161
-0.011922 0.413333 -0.650312 -0.0720814 0.997345 -0.010356 154 161 158
-0.00333333 0.413333 -0.650985 -0.0453118 0.995827 -0.0792197 158 164 162
-0.00666667 0.416667 -0.650868 -0.113917 0.993437 -0.0103155 160 167 164
-0.0733333 0.423333 -0.645044 -0.0806102 0.996674 0.0119155 166 172 169
-0.0766667 0.426667 -0.644483 -0.153719 0.984376 0.0858716 168 174 172
-0.0633333 0.423333 -0.645788 -0.0799605 0.996347 0.0299652 166 172 170
-0.0666667 0.426667 -0.645481 -0.0620098 0.998004 0.0119314 166 172 170
-0.0533333 0.423333 -0.646546 -0.0413299 0.998561 -0.0341686 169 175 174
-0.0566667 0.426667 -0.646307 -0.10505 0.994017 0.0298951 168 173 173
-0.0433333 0.423333 -0.647356 -0.133028 0.990582 0.0324218 168 174 172
-0.0466667 0.426667 -0.647022 -0.0671533 0.997159 -0.0341206 170 176 174
-0.0333333 0.423333 -0.648369 -0.074101 0.997184 0.011564 164 170 168
-0.0366667 0.426667 -0.648012 -0.0949616 0.994948 0.0325648 167 173 171
-0.0233333 0.423333 -0.649535 -0.130385 0.991463 -0.000824505 163 169 167
-0.0266667 0.426667 -0.649058 -0.142459 0.989734 0.0114776 166 172 171
-0.0198253 0.423333 -0.649983 -0.056096 0.998425 -0.000830294 162 168 166
-0.0197251 0.426667 -0.649993 -0.0701499 0.997535 -0.00156882 166 172 170
-0.0163918 0.426667 -0.65023 -0.0708962 0.997482 -0.00158551 169 175 173
-0.0131586 0.423333 -0.650403 -0.0548443 0.998353 -0.016856 167 173 170
-0.00333333 0.423333 -0.651098 -0.113747 0.991948 0.0556775 169 176 173
-0.00666667 0.426667 -0.650772 -0.0416145 0.998991 -0.0168668 174 179 177
-0.0733333 0.433333 -0.644747 -0.154281 0.987975 -0.0101909 168 173 172
-0.0766667 0.436667 -0.644542 -0.0713063 0.993015 -0.0940043 165 170 169
-0.0633333 0.433333 -0.645796 -0.0619529 0.997088 -0.044464 167 173 171
-0.0666667 0.436667 -0.645624 -0.0959626 0.995332 -0.0102668 167 172 171
-0.0533333 0.433333 -0.646641 -0.105066 0.994168 -0.0243096 169 175 173
-0.0566667 0.436667 -0.646437 -0.0851455 0.995379 -0.0443878 168 174 172
-0.0433333 0.433333 -0.647636 -0.0669653 0.994367 -0.0821609 171 177 175
-0.0466667 0.436667 -0.647493 -0.124505 0.991922 -0.0242547 171 177 175
-0.0333333 0.433333 -0.64851 -0.0946615 0.991804 -0.0858158 168 174 173
-0.0366667 0.436667 -0.648467 -0.0985233 0.991755 -0.0819451 170 176 174
-0.0233333 0.433333 -0.649426 -0.142435 0.989568 0.0216302 167 173 172
-0.0266667 0.436667 -0.649235 -0.0353984 0.995653 -0.0861489 167 172 171
-0.0198998 0.433333 -0.649913 -0.0701333 0.997299 0.0217992 168 174 172
-0.0192586 0.436667 -0.64992 -0.123631 0.992125 0.0200674 167 173 171
-0.0159253 0.436667 -0.650346 -0.127363 0.991641 0.0206731 170 176 173
-0.0132332 0.433333 -0.650576 -0.0708537 0.996884 -0.0346816 174 180 178
-0.00333333 0.433333 -0.651083 -0.0415954 0.998533 -0.0346628 178 184 181
-0.00666667 0.436667 -0.65106 -0.0415192 0.998534 -0.034739 176 182 179
-0.0733333 0.443333 -0.645034 -0.0716108 0.997255 0.0188157 166 171 170
-0.0766667 0.446667 -0.644698 -0.0817825 0.996227 0.0290419 165 171 170
-0.0633333 0.443333 -0.645902 -0.0959419 0.995117 0.0231636 168 173 173
-0.0666667 0.446667 -0.645518 -0.0915998 0.995619 0.0187848 170 175 175
-0.0533333 0.443333 -0.646822 -0.0852204 0.996255 0.014624 170 175 174
-0.0566667 0.446667 -0.646459 -0.0936996 0.995331 0.0231686 170 175 174
-0.0433333 0.443333 -0.64817 -0.124369 0.990839 -0.0526368 173 179 177
-0.0466667 0.446667 -0.647703 -0.189787 0.981719 0.0144106 172 178 176
-0.0333333 0.443333 -0.649177 -0.0988086 0.994627 -0.0308924 170 176 175
-0.0366667 0.446667 -0.649023 -0.0769406 0.995632 -0.0528914 173 179 177
-0.0233333 0.443333 -0.649666 -0.0355296 0.999342 -0.0072889 166 172 170
-0.0266667 0.446667 -0.649651 -0.0117809 0.999449 -0.0310421 168 173 172
-0.0193588 0.443333 -0.649864 -0.123653 0.992299 -0.00723753 166 171 170
-0.0187911 0.446667 -0.649944 -0.0974605 0.995237 -0.0021499 166 172 170
-0.0154577 0.446667 -0.650293 -0.105378 0.99443 -0.00232456 168 174 171
-0.0126921 0.443333 -0.650639 -0.127374 0.991731 0.0156774 170 176 173
-0.00333333 0.443333 -0.65137 -0.0415385 0.998997 -0.0166992 175 181 178
-0.00666667 0.446667 -0.651179 -0.0738925 0.997142 0.0157629 173 180 176
-0.0733333 0.453333 -0.645086 -0.0816533 0.994653 -0.0632282 170 175 175
-0.0766667 0.456667 -0.645017 -0.0840017 0.994605 -0.0608728 168 174 173
-0.0633333 0.453333 -0.645819 -0.0916022 0.995645 -0.017342 171 177 177
-0.0666667 0.456667 -0.645725 -0.0457125 0.996942 -0.0633737 171 177 177
-0.0533333 0.453333 -0.646994 -0.0933547 0.991668 -0.0887698 171 178 177
-0.0566667 0.456667 -0.646738 -0.163962 0.986317 -0.0171796 171 178 177
-0.0433333 0.453333 -0.648194 -0.189717 0.981357 0.0307423 173 179 178
-0.0466667 0.456667 -0.647848 -0.0720032 0.993432 -0.0889278 172 179 178
-0.0333333 0.453333 -0.64945 -0.0770482 0.997025 0.00235047 171 177 175
-0.0366667 0.456667 -0.649088 -0.105601 0.993921 0.0311359 172 179 177
-0.0248685 0.458094 -0.649897 -0.0569844 0.99732 -0.0458887 169 175 173
-0.0233333 0.45476 -0.649842 -0.0529889 0.997838 -0.0388746 168 173 171
-0.0266667 0.453333 -0.649747 -0.0117866 0.999928 0.00235731 168 174 172
-0.0194323 0.451427 -0.649944 -0.0973876 0.994492 -0.0387443 167 172 171
-0.0215352 0.458094 -0.650081 -0.0524933 0.997726 -0.0422721 171 177 175
-0.0194323 0.45476 -0.650081 -0.105805 0.993496 -0.0420928 170 175 174
-0.016099 0.453333 -0.650374 -0.105286 0.993554 -0.0420059 171 176 174
-0.0133333 0.456667 -0.650728 -0.081841 0.996476 -0.0183753 174 180 177
-0.00333333 0.453333 -0.651448 -0.0738831 0.997014 -0.0224395 174 180 177
-0.00666667 0.456667 -0.651263 -0.0779199 0.99679 -0.0183811 175 181 178
-0.0733333 0.463333 -0.645442 -0.0841443 0.996293 0.0178702 164 170 169
-0.0766667 0.466667 -0.645189 -0.0578841 0.998287 -0.00852267 159 166 164
-0.0633333 0.463333 -0.646131 -0.0458009 0.998872 -0.0125514 165 172 171
-0.0666667 0.466667 -0.645919 -0.0761212 0.996938 0.0178818 159 166 164
-0.0533333 0.463333 -0.647336 -0.163985 0.986453 0.00431995 165 173 171
-0.0566667 0.466667 -0.646824 -0.147644 0.988962 -0.0124269 159 166 164
-0.0433333 0.463333 -0.648522 -0.0722317 0.996585 -0.0400088 164 171 170
-0.0466667 0.466667 -0.648265 -0.116211 0.993215 0.00434956 157 165 163
-0.0333333 0.463333 -0.649372 -0.105647 0.994351 -0.0102036 165 171 169
-0.0366667 0.466667 -0.649152 -0.07608 0.996299 -0.0399973 158 165 163
-0.0282018 0.463333 -0.649829 -0.0570415 0.998319 -0.0102443 164 170 167
-0.0271951 0.466667 -0.649931 -0.0679131 0.997561 -0.0161246 158 165 163
-0.0238618 0.466667 -0.650162 -0.0693965 0.997453 -0.0164768 158 165 163
-0.0215352 0.463333 -0.650243 -0.0525247 0.998324 -0.0242894 166 172 170
-0.0133333 0.463333 -0.650681 -0.0818115 0.996117 0.0325346 169 175 172
-0.0166667 0.466667 -0.650488 -0.0251235 0.999389 -0.0243153 160 167 165
-0.00333333 0.463333 -0.65163 -0.077926 0.996869 -0.0134237 169 176 173
-0.00666667 0.466667 -0.65126 -0.123284 0.991843 0.032395 163 170 167
-0.0733333 0.473333 -0.64537 -0.0578818 0.998248 0.0122847 156 163 162
-0.0766667 0.476667 -0.644926 -0.119814 0.98999 0.0745937 160 166 166
-0.0633333 0.473333 -0.646109 -0.0761333 0.997097 0.00133888 156 162 161
-0.0666667 0.476667 -0.645813 -0.0869809 0.996135 0.0122586 157 163 163
-0.0533333 0.473333 -0.647289 -0.14762 0.988801 0.0219303 156 163 160
-0.0566667 0.476667 -0.646787 -0.127409 0.991849 0.00133183 158 164 163
-0.0433333 0.473333 -0.648464 -0.116051 0.99185 0.0525997 153 160 158
-0.0466667 0.476667 -0.648 -0.0858122 0.996066 0.0220914 158 164 162
-0.0333333 0.473333 -0.649447 -0.0761119 0.996717 0.0276114 154 161 159
-0.0366667 0.476667 -0.649016 -0.10103 0.993487 0.0526865 157 163 162
-0.0289933 0.473333 -0.649771 -0.067896 0.99731 0.0276278 156 163 161
-0.0275523 0.476667 -0.649839 -0.110948 0.993721 0.0144521 160 167 165
-0.024219 0.476667 -0.650225 -0.117928 0.992903 0.0153613 161 168 166
-0.0223266 0.473333 -0.650387 -0.0693936 0.997412 -0.0188187 157 164 162
-0.0133333 0.473333 -0.650914 -0.0250542 0.996634 -0.0780597 158 165 163
-0.0166667 0.476667 -0.650893 -0.0842788 0.996265 -0.018797 162 169 167
-0.00333333 0.473333 -0.651619 -0.123334 0.99224 -0.0157838 159 167 163
-0.00666667 0.476667 -0.651465 -0.061576 0.995055 -0.0779361 163 170 167
0.0866667 0.643333 -0.667033 -0.137526 0.98426 -0.110988 33 33 32
0.0833333 0.646667 -0.666994 -0.122641 0.984431 -0.125915 33 33 32
0.0966667 0.643333 -0.667893 -0.12284 0.99229 0.0164811 34 34 32
0.0933333 0.646667 -0.667856 0.00554188 0.993687 -0.112051 33 33 32
0.106667 0.643333 -0.668207 0.02999 0.999453 -0.0139465 34 34 33
0.103333 0.646667 -0.668252 -0.000556869 0.999862 0.0166069 34 34 32
0.116667 0.643333 -0.66828 -0.0442566 0.99876 0.0228141 34 34 33
0.113333 0.646667 -0.668179 -0.00751401 0.999874 -0.0139524 34 34 33
0.126667 0.643333 -0.668594 -0.00456922 0.999828 -0.0179794 35 35 34
0.123333 0.646667 -0.668503 -0.0453364 0.998711 0.022813 35 35 33
0.136667 0.643333 -0.669219 -0.0573893 0.994728 -0.0849836 34 35 34
0.133333 0.646667 -0.669087 -0.124157 0.992102 -0.0178405 35 35 34
0.146667 0.643333 -0.669241 0.0377687 0.993262 -0.109563 35 35 33
0.143333 0.646667 -0.669652 0.0131042 0.996285 -0.0851166 35 35 34
0.155451 0.649544 -0.66995 -0.0236639 0.997724 -0.0631407 36 36 34
0.156667 0.646211 -0.669693 -0.0271473 0.995675 -0.0888529 36 36 34
0.153333 0.643333 -0.669275 -0.0479855 0.992826 -0.109514 35 35 33
0.158784 0.649544 -0.670034 -0.0275084 0.996923 -0.0733989 37 37 35
0.0856653 0.659314 -0.669676 -0.134918 0.971073 -0.197014 34 33 32
0.0866667 0.655981 -0.669093 -0.137848 0.967267 -0.213054 33 33 32
0.0833333 0.653333 -0.668094 -0.121206 0.972913 -0.196851 33 33 32
0.0915067 0.655981 -0.669417 0.0974351 0.971944 -0.214084 33 33 31
0.0948401 0.656667 -0.669264 0.0815845 0.974843 -0.207426 33 32 32
0.0966667 0.653333 -0.668662 0.00552711 0.991039 -0.13346 33 33 32
0.106667 0.653333 -0.668482 -0.000554944 0.996405 -0.0847163 33 33 32
0.103333 0.656667 -0.668929 0.0485909 0.989883 -0.133304 32 32 32
0.116667 0.653333 -0.668424 -0.00750456 0.998617 -0.0520367 34 33 33
0.113333 0.656667 -0.668682 0.0252989 0.996086 -0.0846892 33 33 32
0.126667 0.653333 -0.66877 -0.045273 0.997315 -0.057569 35 35 34
0.123333 0.656667 -0.668793 -0.0508751 0.997352 -0.0519708 34 33 33
0.135007 0.656746 -0.669769 -0.136495 0.988191 -0.0696258 35 34 34
0.136667 0.653412 -0.669762 -0.146263 0.986023 -0.0797846 35 35 35
0.133333 0.653333 -0.669339 -0.123973 0.990637 -0.0571835 35 35 34
0.146667 0.650461 -0.669943 0.0130745 0.994026 -0.108356 35 35 34
0.143333 0.65054 -0.669994 0.00923933 0.9967 -0.0806485 35 35 35
0.152118 0.650461 -0.66995 -0.0235716 0.993835 -0.108336 36 36 34
0.159959 0.659604 -0.669997 0.0860651 0.99625 0.00888368 33 33 34
0.0889986 0.659314 -0.670119 -0.116476 0.978522 -0.170085 34 33 31
0.0915067 0.659314 -0.670119 0.0777047 0.982249 -0.170732 34 33 31
0.13834 0.656746 -0.670267 -0.158307 0.984082 -0.0807521 34 34 33
0.143333 0.653873 -0.670267 0.00936894 0.996606 -0.0817798 35 34 34
0.146667 0.657127 -0.670626 -0.0274701 0.991891 -0.12409 34 34 33
0.159959 0.65627 -0.670034 0.109973 0.99387 0.0113515 34 34 34
0.156626 0.656667 -0.670393 0.108499 0.994032 0.011335 34 34 34
0.155451 0.650461 -0.670034 -0.0273638 0.991683 -0.125765 36 36 34
0.153333 0.653794 -0.670393 -0.0271346 0.9919 -0.124091 35 35 34
0.082332 0.660997 -0.669676 -0.130993 0.942825 -0.306465 33 33 32
0.0981734 0.661366 -0.669847 0.0828849 0.990381 -0.110796 32 32 32
0.106667 0.662745 -0.669531 0.0487067 0.992241 -0.114391 31 31 31
0.103333 0.664112 -0.669847 0.0459405 0.992751 -0.111061 31 31 31
0.116667 0.661742 -0.669282 0.0247426 0.974183 -0.224398 32 32 32
0.113333 0.664487 -0.669684 -0.0344665 0.99283 -0.114459 31 31 32
0.126667 0.661873 -0.669368 -0.0505614 0.991203 -0.122309 33 33 33
0.123333 0.663615 -0.669599 0.00885351 0.974444 -0.224458 32 32 32
0.131673 0.661873 -0.669769 -0.135816 0.983277 -0.121331 33 33 33
0.159959 0.660024 -0.669997 0.0851646 0.985826 -0.144546 33 33 34
0.082332 0.66433 -0.670676 -0.117906 0.953942 -0.275848 34 33 32
0.0856653 0.663333 -0.670795 -0.113703 0.955223 -0.273167 34 33 32
0.0866667 0.666667 -0.671294 0.0524739 0.99219 -0.113161 34 33 32
0.0948401 0.661366 -0.670119 0.078428 0.991392 -0.104838 33 32 31
0.0966667 0.6647 -0.670331 0.0792223 0.991119 -0.1068 32 31 31
0.0933333 0.666667 -0.670831 0.0853593 0.989933 -0.112904 32 32 31
0.103333 0.667445 -0.670212 0.0442735 0.993269 -0.107031 31 31 31
0.106667 0.669412 -0.670284 0.0417305 0.991786 -0.120912 31 31 31
0.113333 0.66782 -0.670072 -0.0364171 0.991992 -0.120937 31 31 31
0.116667 0.668408 -0.670502 -0.103244 0.960223 -0.259447 32 32 32
0.123333 0.666948 -0.67043 0.010288 0.965331 -0.260827 32 32 32
0.126667 0.66854 -0.670657 0.0600965 0.986347 -0.153323 31 31 31
0.131673 0.665206 -0.670227 -0.169453 0.973843 -0.15138 32 31 32
0.135007 0.663333 -0.670494 -0.157138 0.976814 -0.1454 32 32 32
0.136667 0.666667 -0.671217 -0.145732 0.980214 -0.133954 30 30 30
0.146667 0.663333 -0.671399 -0.027474 0.992032 -0.122952 31 31 31
0.143333 0.666667 -0.671762 -0.014837 0.990682 -0.135384 30 29 30
0.156626 0.660024 -0.670359 0.106712 0.977655 -0.181118 33 33 33
0.156667 0.663357 -0.670961 0.106754 0.978269 -0.177747 33 33 33
0.153333 0.666667 -0.671733 0.0509126 0.99112 -0.122839 31 31 31
0.0984535 0.678607 -0.669857 0.0918391 0.990541 0.101957 31 31 31
0.106667 0.67653 -0.669866 0.0131734 0.997851 0.0641907 31 31 31
0.103333 0.678607 -0.669723 -0.00291428 0.99474 0.102389 31 31 31
0.116667 0.677322 -0.669904 -0.0696951 0.98507 0.157415 30 30 30
0.113333 0.677923 -0.66977 -0.011237 0.997874 0.0641922 31 31 30
0.121108 0.679399 -0.669904 -0.0853276 0.98387 0.157223 29 29 29
0.0866667 0.673333 -0.671369 0.0525939 0.994459 0.0910227 33 33 32
0.0833333 0.676667 -0.671407 0.102285 0.993899 0.0412507 33 33 32
0.0984535 0.675274 -0.670212 0.0973455 0.989366 0.108069 31 31 31
0.0951202 0.676667 -0.670406 0.107396 0.987816 0.112634 31 31 31
0.0933333 0.673333 -0.670906 0.0855536 0.992186 0.0908146 32 32 32
0.103333 0.67194 -0.670284 0.0417908 0.993219 0.10849 31 31 31
0.106667 0.673197 -0.670072 0.0116917 0.998307 0.0569705 31 31 31
0.113333 0.671256 -0.670502 -0.106733 0.992673 0.0566489 31 31 31
0.116667 0.673988 -0.67043 -0.0686885 0.985501 0.155141 31 31 31
0.124441 0.679399 -0.670246 -0.107567 0.974241 0.1982 29 29 29
0.123333 0.676065 -0.670676 -0.100359 0.982847 0.154723 30 30 30
0.126667 0.673333 -0.670903 0.0608146 0.998133 -0.00560475 30 30 30
0.136667 0.673333 -0.671619 -0.147039 0.989003 0.015921 28 28 29
0.133333 0.676667 -0.671142 -0.125948 0.992021 -0.00557043 28 28 29
0.146667 0.673333 -0.672332 -0.014972 0.999698 -0.0194643 28 28 28
0.143333 0.676667 -0.672229 -0.0504738 0.998596 0.0160754 27 27 28
0.156667 0.673333 -0.672229 0.051153 0.995801 -0.0759204 29 30 30
0.153333 0.676667 -0.672465 -0.00540051 0.999796 -0.0194662 28 28 29
0.0984535 0.680931 -0.669857 0.0912534 0.984223 -0.151584 31 31 31
0.106667 0.681368 -0.669723 -0.0029158 0.995261 -0.0972006 31 31 31
0.103333 0.682299 -0.669857 0.0199595 0.98815 -0.152189 31 31 31
0.11082 0.684701 -0.669866 0.226813 0.969327 -0.0946678 31 31 30
0.114154 0.686667 -0.669421 0.17402 0.981309 -0.0821572 30 30 30
0.116667 0.683333 -0.669325 -0.0111989 0.994483 0.104295 30 30 29
0.121108 0.683333 -0.669458 -0.0859344 0.990867 0.103916 29 29 29
0.12339 0.686667 -0.669554 -0.191224 0.979232 0.067367 28 28 28
0.0866667 0.683333 -0.671162 0.102119 0.992288 -0.0702623 33 33 32
0.0833333 0.686667 -0.671743 0.102692 0.992188 -0.0708381 33 33 32
0.0951202 0.680931 -0.670194 0.106383 0.978496 -0.176716 31 31 31
0.0966667 0.684264 -0.670556 0.0986769 0.984057 -0.147965 31 31 31
0.0933333 0.686667 -0.670986 0.0206653 0.997289 -0.0706165 32 32 31
0.103333 0.685632 -0.670361 0.019497 0.988696 -0.148663 31 31 31
0.106667 0.688035 -0.670537 0.0552359 0.994489 -0.0891083 30 30 31
0.11082 0.688035 -0.670176 0.209093 0.973994 -0.0872719 30 30 30
0.126723 0.686667 -0.670264 -0.242934 0.96626 0.0855844 27 27 27
0.127775 0.683333 -0.67051 -0.109742 0.993945 -0.00553573 27 27 28
0.136667 0.683333 -0.671452 -0.125854 0.991282 0.0390018 26 26 28
0.133333 0.686667 -0.671048 -0.0817705 0.996636 -0.00555072 26 26 27
0.146667 0.683333 -0.67201 -0.0502296 0.993765 0.0995418 26 26 27
0.143333 0.686667 -0.67171 0.0102683 0.999174 0.0393123 25 25 27
0.156667 0.683333 -0.672469 -0.0054 0.999702 0.0238119 27 28 28
0.153333 0.686667 -0.672117 -0.0810741 0.991745 0.0993395 26 26 27
0.0899578 0.699954 -0.669993 0.160975 0.975913 0.147247 28 28 28
0.0902068 0.699954 -0.669993 -0.0333051 0.98826 0.14911 28 28 28
0.107336 0.697715 -0.669683 0.117118 0.983683 0.136567 27 27 28
0.114154 0.691049 -0.669554 0.173005 0.975582 0.135314 28 28 29
0.113333 0.694382 -0.669237 0.173041 0.975558 0.135439 27 27 28
0.116667 0.696667 -0.669107 -0.0558903 0.993983 -0.0942021 26 26 26
0.122282 0.693333 -0.669425 -0.190835 0.977243 -0.0926156 27 27 27
0.124048 0.696667 -0.66987 -0.0732822 0.997247 -0.0113545 25 25 26
0.0899578 0.69662 -0.67043 0.14049 0.981707 0.128508 29 29 29
0.0866244 0.696667 -0.671033 0.178619 0.975531 0.128194 30 30 30
0.0833333 0.693333 -0.671808 0.102814 0.993368 0.0514676 32 32 31
0.0935401 0.699954 -0.670095 -0.0300658 0.990443 0.134607 29 29 29
0.0933333 0.69662 -0.670525 -0.0300168 0.991094 0.129737 30 30 30
0.0966667 0.693333 -0.670886 0.0206512 0.996611 0.0796243 31 31 31
0.107336 0.694382 -0.670176 0.140597 0.976399 0.163945 28 28 29
0.104003 0.696667 -0.670271 0.138532 0.976965 0.162324 29 29 30
0.103333 0.693333 -0.670632 0.0552809 0.995299 0.0795195 30 30 30
0.11082 0.691049 -0.670176 0.207121 0.964809 0.161999 29 29 30
0.127381 0.696667 -0.670126 -0.0802308 0.996699 -0.0124312 25 25 26
0.128949 0.693333 -0.67039 -0.243632 0.969037 0.0401449 25 25 26
0.136667 0.693333 -0.67121 -0.0817107 0.995907 0.0386443 25 25 27
0.133333 0.696667 -0.670799 -0.0842973 0.995587 0.0412448 25 25 26
0.146667 0.693333 -0.67158 0.0102757 0.999891 -0.0106418 25 25 27
0.143333 0.696667 -0.671485 -0.0391099 0.998483 0.0387443 25 25 27
0.156667 0.693333 -0.672008 -0.081469 0.996575 0.0141497 25 25 27
0.153333 0.696667 -0.671771 -0.0568125 0.998328 -0.0106252 25 25 26
0.0899578 0.700056 -0.669993 0.161519 0.979208 -0.122737 28 28 28
0.0902068 0.700056 -0.669993 -0.0334204 0.991682 -0.1243 28 28 28
0.0997616 0.70923 -0.669972 0.115542 0.992658 0.0357741 27 27 27
0.104003 0.702563 -0.669683 0.11817 0.992514 0.0308546 27 27 28
0.103333 0.705897 -0.669655 0.121874 0.991902 0.0357469 26 26 27
0.106667 0.706667 -0.669432 0.0583866 0.997894 -0.0282607 25 25 26
0.116336 0.709457 -0.669777 -0.0739053 0.996253 -0.0449166 24 24 25
0.116667 0.706123 -0.669648 -0.07413 0.996172 -0.0463285 24 24 25
0.113333 0.703333 -0.66933 -0.0561175 0.998024 -0.0282644 24 24 25
0.121766 0.70279 -0.66987 -0.0732082 0.99624 -0.0463317 25 25 25
0.0866244 0.700056 -0.670603 0.178441 0.974563 -0.135596 29 29 29
0.0866667 0.703389 -0.670921 0.178624 0.979302 -0.0951903 29 29 29
0.0833333 0.706667 -0.670996 -0.0720478 0.985129 0.155978 29 30 29
0.0997616 0.705897 -0.670095 0.118653 0.992256 0.0367375 28 28 28
0.0964283 0.706667 -0.670413 0.102336 0.994112 0.0356235 29 29 29
0.0935401 0.700056 -0.670095 -0.0301505 0.993235 -0.112139 29 29 29
0.0933333 0.703389 -0.670413 -0.0299394 0.994863 -0.0967028 29 29 29
0.100669 0.702563 -0.670095 0.140299 0.989431 0.0366329 29 29 29
0.11967 0.709457 -0.670024 -0.0712892 0.996514 -0.0433267 24 24 25
0.121766 0.706123 -0.670024 -0.0684736 0.996711 -0.0433353 24 24 25
0.125099 0.703333 -0.67015 -0.0801387 0.995554 -0.0495061 24 24 25
0.126667 0.706667 -0.670316 -0.0428119 0.99901 -0.012073 24 24 25
0.136667 0.703333 -0.67096 -0.0843681 0.996422 -0.00494137 24 24 26
0.133333 0.706667 -0.670718 -0.0773075 0.996935 -0.0120479 24 24 25
0.146667 0.703333 -0.671524 -0.0391368 0.99917 -0.0112974 25 25 27
0.143333 0.706667 -0.67141 -0.0454693 0.998953 -0.00495392 24 24 26
0.156667 0.703333 -0.672003 -0.0568156 0.998382 -0.00212516 25 25 26
0.153333 0.706667 -0.671852 -0.0476722 0.998799 -0.0112932 25 25 26
0.0997616 0.711021 -0.669972 0.115574 0.992932 -0.0269837 27 27 27
0.100608 0.714354 -0.669972 0.102717 0.994343 -0.0270221 27 27 27
0.103942 0.716667 -0.66967 0.110087 0.993517 -0.0283602 25 25 26
0.106667 0.713333 -0.669448 0.0583935 0.998012 0.0237031 25 25 26
0.113003 0.713333 -0.669475 -0.0739592 0.99698 0.0236786 24 24 25
0.114925 0.716667 -0.669698 -0.154984 0.986638 -0.0502551 24 24 25
0.0866667 0.713333 -0.670499 -0.0727928 0.995316 0.0636121 29 29 29
0.0833333 0.716667 -0.670813 0.154159 0.974483 -0.163147 29 29 29
0.0964283 0.711021 -0.670319 0.102372 0.994459 -0.0239014 28 28 28
0.0966667 0.714354 -0.670385 0.103786 0.994188 -0.0286034 28 28 28
0.0933333 0.716667 -0.670491 0.0116865 0.997896 0.063777 28 28 29
0.100608 0.717688 -0.670067 0.108671 0.993667 -0.0285884 27 27 28
0.118259 0.716667 -0.670192 -0.134783 0.989911 -0.0437049 24 24 25
0.11967 0.713333 -0.670216 -0.0712657 0.996185 -0.0503595 24 24 25
0.126667 0.713333 -0.670203 -0.0427697 0.998027 0.0459754 24 24 25
0.123333 0.716667 -0.670229 0.0536185 0.997288 -0.0504153 24 24 25
0.136667 0.713333 -0.670797 -0.0771472 0.994868 0.0654734 24 24 25
0.133333 0.716667 -0.670385 -0.0576431 0.99728 0.045941 23 23 25
0.146667 0.713333 -0.671512 -0.0454609 0.998768 0.0198882 24 24 26
0.143333 0.716667 -0.671141 -0.0908409 0.993716 0.0653976 24 24 26
0.156667 0.713333 -0.67217 -0.0476437 0.998203 -0.036342 25 25 26
0.153333 0.716667 -0.671944 -0.103471 0.994435 0.0198019 24 24 26
-0.319872 0.563333 -0.629604 -0.163776 0.980994 0.104063 159 164 163
-0.318286 0.566667 -0.629625 -0.228748 0.96832 0.100152 155 160 159
-0.314952 0.566667 -0.630372 -0.20731 0.974055 0.0907663 155 159 158
-0.313206 0.563333 -0.630791 -0.129779 0.99144 0.0142621 159 164 162
-0.303333 0.563333 -0.632 -0.0767967 0.994753 -0.0675984 160 165 163
-0.306667 0.566667 -0.631695 -0.157534 0.987411 0.0142041 156 160 158
-0.293333 0.563333 -0.633159 -0.173432 0.984753 0.0135536 158 163 162
-0.296667 0.566667 -0.632799 -0.0937663 0.993303 -0.0675 155 160 159
-0.283333 0.563333 -0.63456 -0.118173 0.992963 0.00770071 158 164 163
-0.286667 0.566667 -0.634117 -0.124042 0.992183 0.0136558 155 160 159
-0.273333 0.563333 -0.635802 -0.121738 0.992562 -0.000620957 161 166 165
-0.276667 0.566667 -0.635367 -0.129917 0.991495 0.00768932 156 162 161
-0.263333 0.563333 -0.636989 -0.144837 0.987723 0.0585262 162 168 166
-0.266667 0.566667 -0.636502 -0.086433 0.996258 -0.000623269 159 164 163
-0.253333 0.563333 -0.637662 -0.0467115 0.994166 0.097223 163 168 167
-0.256667 0.566667 -0.637308 -0.00843065 0.998214 0.0591478 159 165 163
-0.243333 0.563333 -0.638695 -0.139769 0.983221 0.117224 163 169 167
-0.246667 0.566667 -0.637895 -0.119293 0.988145 0.0966343 162 167 166
-0.318413 0.573333 -0.629302 -0.229878 0.973103 -0.0150228 147 151 149
-0.316334 0.576667 -0.629677 -0.15366 0.987863 0.0226952 142 144 143
-0.281613 0.579514 -0.629837 0.0953068 0.943875 0.316255 131 134 134
-0.279236 0.579514 -0.629837 -0.198031 0.929413 0.311409 132 136 135
-0.313 0.576667 -0.630183 -0.14405 0.989342 0.0212758 140 141 141
-0.311746 0.573333 -0.630554 -0.20785 0.976591 0.0554004 145 147 146
-0.303333 0.573333 -0.632069 -0.157467 0.986991 0.0324361 141 143 143
-0.306667 0.576667 -0.631348 -0.180118 0.982066 0.055711 134 135 135
-0.293333 0.573333 -0.632528 -0.0913347 0.967544 0.235619 141 144 143
-0.296667 0.576667 -0.632104 0.115421 0.992781 0.0326264 130 132 131
-0.281613 0.576181 -0.631635 0.1484 0.857605 0.492434 139 143 142
-0.284946 0.576667 -0.632041 0.198133 0.838722 0.507237 133 136 135
-0.286667 0.573333 -0.633259 -0.120583 0.964516 0.234881 141 144 144
-0.275902 0.579514 -0.631275 -0.364312 0.734215 0.572891 128 132 131
-0.276667 0.576181 -0.63291 -0.374778 0.804 0.461654 137 141 140
-0.273333 0.573333 -0.634981 -0.126417 0.964786 0.230667 143 147 147
-0.263333 0.573333 -0.636158 -0.0849174 0.978788 0.186446 144 148 147
-0.266667 0.576667 -0.635072 -0.13052 0.964269 0.230543 132 136 135
-0.253333 0.573333 -0.636236 -0.00815168 0.965183 0.26145 156 160 159
-0.256667 0.576667 -0.635573 0.0705023 0.979892 0.186657 143 147 146
-0.243333 0.573333 -0.637586 -0.119071 0.98631 0.114082 157 161 160
-0.246667 0.576667 -0.636281 -0.257369 0.9327 0.252651 154 158 157
-0.293333 0.583333 -0.632308 0.113043 0.972328 -0.204448 94 95 95
-0.296667 0.586667 -0.633074 0.0193727 0.993433 -0.112761 71 72 72
-0.263333 0.583333 -0.634836 -0.134062 0.990434 -0.0326777 113 115 114
-0.266667 0.586667 -0.634939 -0.00208473 0.98646 -0.163986 96 98 97
-0.253333 0.583333 -0.635308 0.0705966 0.981203 -0.1796 131 134 133
-0.256667 0.586667 -0.635658 -0.0778191 0.996425 -0.0328754 112 114 114
-0.243333 0.583333 -0.636355 -0.265962 0.96384 -0.0166263 131 134 134
-0.246667 0.586667 -0.636046 -0.107719 0.977934 -0.179002 121 124 123
-0.293333 0.593333 -0.634164 0.0189883 0.973725 -0.226935 42 42 42
-0.296667 0.596667 -0.635024 0.0243451 0.972408 -0.232011 37 37 37
-0.253333 0.592712 -0.637265 -0.0708755 0.907516 -0.413994 91 93 93
-0.256667 0.595713 -0.638503 -0.0387061 0.894126 -0.44614 67 68 68
-0.293333 0.603333 -0.636844 0.0237514 0.948694 -0.315304 31 31 31
-0.296667 0.606667 -0.637061 -0.257968 0.965378 -0.0387117 30 30 30
-0.2802 0.603668 -0.639376 -0.322395 0.926722 0.192999 32 32 32
-0.283534 0.603333 -0.637926 -0.412036 0.890783 0.191654 32 32 32
-0.286667 0.606667 -0.637585 0.0803567 0.945893 -0.314373 31 31 31
-0.253333 0.607927 -0.639944 -0.0730813 0.982683 0.170272 34 34 34
-0.256667 0.608248 -0.63967 -0.0646942 0.985886 0.154415 34 34 34
-0.293586 0.619698 -0.639536 -0.147875 0.981232 -0.123758 27 27 28
-0.293333 0.616364 -0.639194 -0.146926 0.982935 -0.110683 28 28 29
-0.296667 0.613333 -0.637962 -0.251997 0.943033 -0.217225 29 29 30
-0.283333 0.612618 -0.639034 0.0823547 0.969411 -0.231215 30 30 30
-0.286667 0.615649 -0.639659 -0.013856 0.993624 -0.111886 28 28 28
-0.277753 0.612618 -0.639376 -0.260998 0.939 -0.223962 31 31 31
-0.261591 0.611211 -0.639726 0.16588 0.961766 -0.217923 32 32 32
-0.253333 0.610193 -0.63967 -0.0629218 0.958875 -0.276765 34 34 34
-0.256667 0.611404 -0.639726 -0.0673448 0.973063 -0.220482 33 33 33
-0.249043 0.610193 -0.639944 -0.0557636 0.959284 -0.276883 34 34 34
0.246667 0.240379 -0.65978 -0.0411518 0.993343 -0.107594 181 189 177
0.243333 0.242211 -0.659821 -0.0423859 0.994361 -0.0972135 180 187 176
0.256667 0.240295 -0.659927 -0.00255567 0.993998 -0.109366 178 185 174
0.253333 0.240674 -0.659959 -0.00270666 0.994181 -0.107685 179 187 175
0.260941 0.240295 -0.659968 -0.0342514 0.993418 -0.109302 175 183 172
0.243333 0.245544 -0.660141 -0.0408293 0.994768 -0.0936433 175 183 172
0.246667 0.247045 -0.660449 -0.0495594 0.993402 -0.103427 175 183 172
0.253333 0.244007 -0.660308 -0.00260283 0.99462 -0.103554 176 185 173
0.256667 0.246962 -0.660636 -0.00618185 0.994193 -0.107437 173 181 170
0.260941 0.243628 -0.660328 -0.0336486 0.993649 -0.107378 174 181 171
0.264275 0.243333 -0.660412 -0.0347835 0.993576 -0.107692 172 180 169
0.266667 0.246667 -0.660687 0.0161458 0.998238 -0.0571044 171 179 168
0.276667 0.243333 -0.66115 -0.0856155 0.991675 -0.0961775 170 178 167
0.273333 0.246667 -0.661053 -0.124922 0.990547 -0.0566644 170 179 167
0.286667 0.243333 -0.661631 -0.0209197 0.993475 -0.112118 165 174 161
0.283333 0.246667 -0.661884 -0.036729 0.994658 -0.0964668 167 175 163
0.296667 0.243333 -0.661867 0.00766844 0.984445 -0.175526 162 170 157
0.293333 0.246667 -0.66227 -0.0571979 0.992065 -0.111959 162 170 157
0.306667 0.243333 -0.661498 0.0399574 0.987237 -0.154165 161 169 155
0.303333 0.246667 -0.662227 0.0615255 0.982609 -0.175198 161 168 155
0.316667 0.243333 -0.661425 -0.0445785 0.995399 -0.0848206 157 165 151
0.313333 0.246667 -0.661796 0.0258393 0.987696 -0.154237 158 166 152
0.246667 0.253333 -0.660653 -0.0498027 0.998278 0.0309906 173 181 170
0.243333 0.256667 -0.660472 -0.0231564 0.999723 0.00431704 174 182 172
0.256667 0.253333 -0.660903 -0.0062168 0.999813 0.0182995 173 181 170
0.253333 0.256667 -0.660779 -0.0189465 0.999339 0.0310235 174 182 172
0.266667 0.253333 -0.660951 0.0161683 0.999627 -0.021995 172 180 169
0.263333 0.256667 -0.660944 -0.0241207 0.999542 0.0182945 173 181 171
0.276667 0.253333 -0.661462 -0.124897 0.990347 0.0601135 170 179 167
0.273333 0.256667 -0.661115 -0.0433599 0.998818 -0.0219772 172 181 169
0.286667 0.253333 -0.66214 -0.0368412 0.997697 0.0569441 165 173 161
0.283333 0.256667 -0.661815 -0.0404426 0.997346 0.0605384 168 176 165
0.296667 0.253333 -0.662583 -0.0573927 0.995444 0.0761362 164 172 159
0.293333 0.256667 -0.662201 -0.0381562 0.997648 0.0569413 166 173 161
0.306667 0.253333 -0.662569 0.0624867 0.997959 0.0131491 163 170 156
0.303333 0.256667 -0.662523 -0.000692253 0.997088 0.0762619 166 174 160
0.316667 0.253333 -0.662519 0.0260542 0.995909 -0.0865205 158 165 152
0.313333 0.256667 -0.662563 -0.0736834 0.997195 0.013139 163 170 157
0.246667 0.263333 -0.660773 -0.0230981 0.997203 -0.0710821 176 184 174
0.243333 0.266667 -0.660797 -0.063972 0.997494 -0.0302356 177 184 174
0.256667 0.263333 -0.660874 -0.01894 0.998996 -0.040601 174 182 172
0.253333 0.266667 -0.661049 0.0116502 0.997401 -0.0710962 175 183 173
0.266667 0.263333 -0.661028 -0.0241201 0.999518 -0.0195676 174 183 173
0.263333 0.266667 -0.661083 -0.00306447 0.99917 -0.0406081 174 182 173
0.276667 0.263333 -0.66174 -0.0430514 0.99171 -0.121073 174 182 171
0.273333 0.266667 -0.66166 -0.144364 0.989335 -0.0193682 175 183 173
0.286667 0.263333 -0.661875 -0.0404873 0.998448 -0.0382325 171 179 168
0.283333 0.266667 -0.662147 0.0428852 0.991717 -0.121074 175 183 172
0.296667 0.263333 -0.662144 -0.0382181 0.999268 -0.00195932 169 177 165
0.293333 0.266667 -0.662145 -0.00191357 0.999266 -0.0382638 171 179 168
0.306667 0.263333 -0.662547 -0.000691888 0.996562 -0.0828516 169 176 164
0.303333 0.266667 -0.662551 -0.0815979 0.996663 -0.00195421 171 179 167
0.316667 0.263333 -0.662802 -0.0736852 0.99722 -0.0111156 165 173 161
0.313333 0.266667 -0.662833 -0.00189318 0.99656 -0.0828515 168 175 164
0.246667 0.273333 -0.661173 -0.0639903 0.99778 -0.0184602 177 184 174
0.243333 0.276667 -0.661079 -0.0465273 0.998269 -0.0359637 175 183 173
0.256667 0.273333 -0.661286 0.011679 0.999866 -0.0114654 176 183 173
0.253333 0.276667 -0.661386 0.0187084 0.999654 -0.0184949 177 185 174
0.266667 0.273333 -0.66133 -0.00306558 0.999532 -0.0304194 176 184 174
0.263333 0.276667 -0.661358 -0.0220269 0.999692 -0.0114634 177 184 174
0.276667 0.273333 -0.662368 -0.144236 0.98846 -0.0462888 178 186 176
0.273333 0.276667 -0.661983 -0.160146 0.986636 -0.030027 179 186 177
0.286667 0.273333 -0.662849 0.0428332 0.990514 -0.130563 176 185 173
0.283333 0.276667 -0.66315 -0.0416585 0.998038 -0.0467374 178 186 176
0.296667 0.273333 -0.662604 -0.00190591 0.995262 -0.0972088 175 183 171
0.293333 0.276667 -0.663037 0.0319339 0.990919 -0.130616 176 184 172
0.306667 0.273333 -0.663077 -0.0813782 0.993981 -0.0733473 171 179 168
0.303333 0.276667 -0.66313 -0.0576205 0.99361 -0.0970474 173 181 169
0.316667 0.273333 -0.663467 -0.00188928 0.994507 -0.104654 171 178 168
0.313333 0.276667 -0.663707 -0.0332317 0.996738 -0.0735508 172 179 169
0.246667 0.283333 -0.661609 -0.0464235 0.996041 -0.0758095 177 185 175
0.243333 0.286667 -0.661707 -0.0463854 0.99604 -0.0758474 177 185 176
0.256667 0.283333 -0.661752 0.0185993 0.993822 -0.109412 178 186 175
0.253333 0.286667 -0.662069 -0.0152206 0.997001 -0.0758825 179 187 177
0.266667 0.283333 -0.661691 -0.02198 0.997563 -0.066214 179 187 177
0.263333 0.286667 -0.661985 0.0215475 0.993764 -0.109406 179 187 177
0.276667 0.283333 -0.662748 -0.160114 0.986436 -0.0361545 181 189 179
0.273333 0.286667 -0.662428 -0.131157 0.989185 -0.0656579 181 189 179
0.286667 0.283333 -0.66353 -0.0416906 0.998807 -0.0254365 175 183 173
0.283333 0.286667 -0.663513 -0.030521 0.998863 -0.03661 178 185 176
0.296667 0.283333 -0.663541 0.0321672 0.998158 -0.0514416 176 184 173
0.293333 0.286667 -0.663733 0.00615481 0.999657 -0.0254582 174 182 171
0.306667 0.283333 -0.664067 -0.0574435 0.990558 -0.124477 174 183 171
0.303333 0.286667 -0.664046 -0.130809 0.990094 -0.051026 176 185 173
0.316667 0.283333 -0.664339 -0.033209 0.996057 -0.0822701 172 180 170
0.313333 0.286667 -0.664647 0.00965112 0.99215 -0.124677 173 181 170
0.246667 0.293333 -0.662334 -0.0464204 0.996791 -0.0652121 180 188 178
0.243333 0.296667 -0.662369 -0.0548134 0.996878 -0.0568289 180 188 178
0.256667 0.293333 -0.66247 -0.0152582 0.999459 -0.0291209 179 187 177
0.253333 0.296667 -0.662637 0.0209695 0.997647 -0.0652681 179 187 178
0.266667 0.293333 -0.662429 0.0216559 0.998763 -0.0447596 179 187 177
0.263333 0.296667 -0.662598 0.00600168 0.999558 -0.0291238 178 186 176
0.276667 0.293333 -0.6633 -0.131187 0.989412 -0.0620798 179 187 177
0.273333 0.296667 -0.663008 -0.148698 0.987891 -0.0442724 178 185 175
0.286667 0.293333 -0.66383 -0.0305296 0.999146 -0.0278616 175 182 173
0.283333 0.296667 -0.663937 0.00429449 0.998028 -0.0626204 177 184 175
0.296667 0.293333 -0.664106 0.00613056 0.995719 -0.0922319 172 180 170
0.293333 0.296667 -0.66422 -0.0584632 0.997902 -0.0278269 171 179 169
0.306667 0.293333 -0.664668 -0.130979 0.991381 -0.00297251 174 182 172
0.303333 0.296667 -0.664536 -0.0422692 0.994848 -0.0921512 172 181 170
0.316667 0.293333 -0.665202 0.00971456 0.998672 -0.0505919 171 179 168
0.313333 0.296667 -0.665245 -0.0379059 0.999277 -0.00299618 170 178 167
0.246667 0.303333 -0.662568 -0.0548271 0.997127 0.0522558 177 185 175
0.243333 0.306667 -0.662182 -0.063074 0.996173 0.0605052 174 183 173
0.256667 0.303333 -0.662684 0.0210046 0.999315 0.0304662 177 185 175
0.253333 0.306667 -0.662579 -0.000899034 0.998629 0.0523345 175 183 173
0.266667 0.303333 -0.662618 0.00600335 0.999836 0.0170794 178 185 175
0.263333 0.306667 -0.662537 -0.00739687 0.999508 0.0304721 176 184 174
0.276667 0.303333 -0.66359 -0.148813 0.988656 0.0203355 175 182 172
0.273333 0.306667 -0.663032 -0.145449 0.989221 0.0168981 176 183 173
0.286667 0.303333 -0.664231 0.00430103 0.999547 -0.0297717 176 184 174
0.283333 0.306667 -0.664177 -0.0459926 0.99873 0.0205427 176 183 174
0.296667 0.303333 -0.66457 -0.0584758 0.998117 -0.0185045 173 182 171
0.293333 0.306667 -0.664474 -0.0472665 0.998439 -0.0297387 177 185 174
0.306667 0.303333 -0.665124 -0.0424137 0.998249 -0.0412332 172 180 170
0.303333 0.306667 -0.665044 -0.0651046 0.997707 -0.0184969 174 182 172
0.316667 0.303333 -0.665481 -0.037889 0.998831 -0.0300171 168 175 165
0.313333 0.306667 -0.665493 -0.0266478 0.998793 -0.0412557 172 179 169
0.246667 0.313333 -0.662297 -0.0631578 0.997496 -0.0318186 175 182 173
0.243333 0.316667 -0.662228 -0.0523096 0.997718 -0.042688 178 186 177
0.256667 0.313333 -0.662676 -0.000897367 0.996777 -0.080223 175 182 172
0.253333 0.316667 -0.662779 -0.0493987 0.998271 -0.0318434 177 185 175
0.266667 0.313333 -0.662578 -0.00739563 0.99934 -0.03556 177 184 174
0.263333 0.316667 -0.662822 0.0373515 0.996081 -0.0801671 177 185 174
0.276667 0.313333 -0.663352 -0.145388 0.98881 0.0334125 177 184 174
0.273333 0.316667 -0.662981 -0.0773778 0.996371 -0.0354544 179 186 176
0.286667 0.313333 -0.664187 -0.0459906 0.998688 0.0225229 178 185 175
0.283333 0.316667 -0.663921 -0.0571628 0.997795 0.0337161 178 184 175
0.296667 0.313333 -0.664491 -0.0471658 0.996311 0.0716874 179 186 177
0.293333 0.316667 -0.664258 0.00205941 0.999744 0.0225467 180 187 178
0.306667 0.313333 -0.665327 -0.0651157 0.997877 -0.000814612 177 184 173
0.303333 0.316667 -0.664869 -0.136381 0.988102 0.0710967 178 186 175
0.316667 0.313333 -0.665896 -0.0266333 0.99825 -0.052802 173 179 169
0.313333 0.316667 -0.665809 -0.0785151 0.996913 -0.000813825 175 182 172
-0.153333 0.163333 -0.638036 -0.0364382 0.99875 -0.0342246 169 178 175
-0.156667 0.166667 -0.638157 0.00208493 0.997355 -0.072649 168 176 173
-0.143333 0.163333 -0.637801 0.0377879 0.999281 -0.00306481 170 178 175
-0.146667 0.166667 -0.638042 0.0688115 0.997045 -0.0341661 170 178 176
-0.133333 0.163333 -0.637377 0.0623286 0.997319 -0.0383414 170 176 173
-0.136667 0.166667 -0.637595 0.0271086 0.999628 -0.00306588 170 177 174
-0.123333 0.163333 -0.637396 -0.00798925 0.995879 -0.0903397 169 175 172
-0.126667 0.166667 -0.637497 -0.0601377 0.997453 -0.0383466 170 176 173
-0.113333 0.163333 -0.637644 -0.0651766 0.997527 -0.0262906 169 175 172
-0.116667 0.166667 -0.637729 -0.000976368 0.99591 -0.0903425 168 175 172
-0.103333 0.163333 -0.638014 -0.00461045 0.998019 -0.0627493 170 177 173
-0.106667 0.166667 -0.638087 -0.0410887 0.998809 -0.0263243 169 176 172
-0.0933333 0.163333 -0.638152 -0.0236199 0.998359 -0.0521604 167 175 170
-0.0966667 0.166667 -0.638283 -0.0130042 0.997945 -0.0627446 168 176 171
-0.0833333 0.163333 -0.638393 -0.0311546 0.998777 -0.0383975 166 173 168
-0.0866667 0.166667 -0.638463 -0.0173649 0.998487 -0.0521671 165 173 169
-0.153333 0.173333 -0.638737 0.00207943 0.994726 -0.102548 167 175 173
-0.156667 0.176667 -0.638766 -0.093764 0.995571 -0.00679047 163 170 168
-0.143333 0.173333 -0.638455 0.0680056 0.985367 -0.15629 169 177 175
-0.146667 0.176667 -0.639028 0.013424 0.994638 -0.102539 168 176 173
-0.133333 0.173333 -0.637878 0.0269497 0.993769 -0.108155 170 177 174
-0.136667 0.176667 -0.638497 0.0757292 0.984818 -0.156203 169 177 174
-0.123333 0.173333 -0.638132 -0.0599322 0.994045 -0.0910113 170 177 174
-0.126667 0.176667 -0.638294 -0.042723 0.993222 -0.108096 170 176 174
-0.113333 0.173333 -0.638401 -0.000974487 0.993992 -0.109446 169 176 173
-0.116667 0.176667 -0.638703 -0.0194462 0.995647 -0.091158 169 176 173
-0.103333 0.173333 -0.63859 -0.0409607 0.995697 -0.0831216 168 175 171
-0.106667 0.176667 -0.63882 -0.0144224 0.993889 -0.109435 168 175 171
-0.0933333 0.173333 -0.638858 -0.0129693 0.995265 -0.096332 166 174 170
-0.0966667 0.176667 -0.639093 -0.0262401 0.99619 -0.0831628 167 174 170
-0.0833333 0.173333 -0.638943 -0.0173406 0.997093 -0.0742008 165 173 169
-0.0866667 0.176667 -0.639208 0.00495876 0.995336 -0.0963389 165 173 169
-0.153333 0.183333 -0.639243 -0.0936841 0.994723 -0.0418275 161 167 166
-0.156667 0.186667 -0.639057 -0.0973185 0.994521 -0.0381656 155 162 161
-0.143333 0.183333 -0.639457 0.0134849 0.999149 -0.0389759 166 174 171
-0.146667 0.186667 -0.639642 0.0165199 0.998981 -0.0420065 163 171 169
-0.133333 0.183333 -0.638924 0.0765887 0.995995 -0.0461401 166 174 171
-0.136667 0.186667 -0.63931 0.0693598 0.996834 -0.0388856 165 172 169
-0.123333 0.183333 -0.638766 -0.0429726 0.999025 0.0101486 166 173 170
-0.126667 0.186667 -0.638777 0.013454 0.998838 -0.0462719 163 171 167
-0.113333 0.183333 -0.639206 -0.0195122 0.999023 -0.0396646 165 172 169
-0.116667 0.186667 -0.639107 -0.0692231 0.99755 0.0101336 162 169 166
-0.103333 0.183333 -0.639402 -0.0144914 0.998645 -0.0499848 163 170 166
-0.106667 0.186667 -0.639486 -0.0248332 0.998905 -0.0396599 160 167 164
-0.0933333 0.183333 -0.639513 -0.0263279 0.999523 -0.0161552 161 168 164
-0.0966667 0.186667 -0.639592 0.00753963 0.998721 -0.0499886 157 164 160
-0.0833333 0.183333 -0.639648 0.00497792 0.999181 -0.0401511 159 167 162
-0.0866667 0.186667 -0.639718 -0.0190332 0.999688 -0.0161578 154 161 157
-0.153333 0.193333 -0.639201 -0.0969732 0.990992 0.0923612 160 166 165
-0.156667 0.196667 -0.638704 -0.0556687 0.997145 0.051028 161 168 166
-0.143333 0.193333 -0.639756 0.0165338 0.999825 -0.00875701 167 175 172
-0.146667 0.196667 -0.639501 -0.0847479 0.992103 0.0924647 169 176 173
-0.133333 0.193333 -0.639431 0.0692587 0.995381 -0.0664868 168 175 172
-0.136667 0.196667 -0.639692 0.0115421 0.999895 -0.00875762 173 180 177
-0.123333 0.193333 -0.639068 0.0134486 0.998432 -0.0543465 164 171 169
-0.126667 0.196667 -0.639335 0.0257671 0.997445 -0.0666247 170 177 175
-0.113333 0.193333 -0.639196 -0.0691905 0.99708 0.0323036 161 168 165
-0.116667 0.196667 -0.639146 0.0174086 0.998371 -0.0543432 166 173 170
-0.103333 0.193333 -0.639535 -0.0248218 0.99845 0.0498227 159 165 162
