ply
format ascii 1.0
comment Generated by the ZED SDK.
element vertex 681
property float32 x
property float32 y
property float32 z
property float32 nx
property float32 ny
property float32 nz
property uchar red
property uchar green
property uchar blue
end_header
0.483333 0.166667 -0.658024 -0.0564508 0.998262 -0.0169231 156 160 152
0.496667 0.163333 -0.659056 -0.104949 0.993638 0.0408457 154 157 150
0.493333 0.166667 -0.658693 -0.0674877 0.997715 0.0031209 152 156 148
0.506616 0.169779 -0.659711 -0.0876011 0.995956 -0.0199473 127 129 122
0.506667 0.166446 -0.65965 -0.0875826 0.995963 -0.0196588 138 140 134
0.503333 0.163333 -0.659498 -0.0270592 0.99879 0.0410574 150 153 146
0.511016 0.163113 -0.659939 -0.0603498 0.997983 -0.0196986 136 138 132
0.50995 0.169779 -0.660004 -0.0892665 0.9958 -0.0203266 113 115 109
0.511016 0.166446 -0.660004 -0.0624013 0.997843 -0.0203683 124 126 120
0.514349 0.163333 -0.660145 -0.0602826 0.997986 -0.0197226 135 138 131
0.516667 0.166667 -0.660376 -0.0679776 0.997309 -0.0274452 132 135 128
0.526667 0.163333 -0.660853 -0.0548609 0.998296 -0.0198636 147 151 144
0.523333 0.166667 -0.660761 -0.047262 0.998505 -0.0274781 144 148 141
0.536667 0.163333 -0.661299 -0.0462219 0.998912 -0.00618833 147 150 143
0.533333 0.166667 -0.661211 -0.0325462 0.999272 -0.019883 149 151 145
0.546667 0.163333 -0.661972 -0.083198 0.996521 0.00500267 145 148 141
0.543333 0.166667 -0.661714 -0.0720839 0.997379 -0.00617883 147 150 143
0.556667 0.163333 -0.662463 -0.0184861 0.99959 -0.0218493 141 144 137
0.553333 0.166667 -0.662385 -0.0453248 0.99896 0.00501492 146 148 141
0.486667 0.173333 -0.658416 -0.0564037 0.99743 -0.0441824 156 160 151
0.483333 0.176667 -0.658115 -0.133586 0.990464 0.0337026 161 164 156
0.496667 0.173333 -0.65907 -0.0674092 0.996556 -0.0483026 151 154 146
0.493333 0.176667 -0.658992 -0.0715612 0.996459 -0.0441394 153 156 148
0.50995 0.17369 -0.659964 -0.0863735 0.996189 0.0121544 121 123 117
0.506616 0.173333 -0.659675 -0.087612 0.99608 0.0121719 134 136 129
0.503333 0.176667 -0.659548 -0.0272254 0.998457 -0.0483948 148 151 143
0.510396 0.177024 -0.659964 -0.0913626 0.995744 0.012149 129 132 125
0.50995 0.170357 -0.660004 -0.0892779 0.995928 0.0125631 113 115 109
0.513729 0.177024 -0.660259 -0.0879141 0.996059 0.0116904 133 136 129
0.513333 0.17369 -0.660264 -0.0886878 0.99598 0.0125638 125 127 121
0.516667 0.173333 -0.660496 -0.0680009 0.997651 -0.00825084 132 135 129
0.526667 0.173333 -0.661033 -0.0472788 0.998859 -0.00669097 144 147 141
0.523333 0.176667 -0.660903 -0.0457117 0.998921 -0.00826134 144 147 140
0.536667 0.173333 -0.661508 -0.0325306 0.998793 -0.0367979 148 151 144
0.533333 0.176667 -0.661422 -0.0625893 0.998017 -0.00668533 147 150 143
0.546667 0.173333 -0.661959 -0.0720842 0.997385 0.00522008 146 149 142
0.543333 0.176667 -0.66184 -0.0301629 0.998867 -0.0368006 146 148 142
0.556667 0.173333 -0.662584 -0.045317 0.998787 -0.0192789 145 148 141
0.553333 0.176667 -0.662415 -0.069737 0.997552 0.00522095 144 146 139
0.486667 0.183333 -0.658337 -0.133586 0.990459 0.0338536 160 163 155
0.483333 0.186667 -0.657965 -0.0769896 0.996758 -0.0233767 160 164 156
0.496667 0.183333 -0.659193 -0.0715197 0.995881 0.0557387 156 159 151
0.493333 0.186667 -0.658839 -0.0499344 0.99817 0.0341171 158 161 153
0.506281 0.188209 -0.659686 -0.10583 0.994123 -0.0228044 148 151 144
0.506667 0.184876 -0.65965 -0.106147 0.994075 -0.0234033 144 146 139
0.503333 0.183333 -0.659523 -0.0272148 0.998068 0.0558611 148 151 143
0.510396 0.181543 -0.659964 -0.0913442 0.995544 -0.0234379 138 141 134
0.509614 0.188209 -0.660042 -0.10814 0.993863 -0.0233023 146 149 142
0.510396 0.184876 -0.660042 -0.0909728 0.99558 -0.0233426 142 145 138
0.513729 0.183333 -0.660301 -0.0878969 0.995864 -0.0229809 144 148 141
0.516667 0.186667 -0.660635 -0.087034 0.99596 -0.0221118 147 151 144
0.526667 0.183333 -0.661111 -0.0457117 0.99892 -0.00831468 145 148 142
0.523333 0.186667 -0.661032 -0.0318592 0.999246 -0.0221848 146 149 142
0.536667 0.183333 -0.661579 -0.0625753 0.997794 0.0221754 148 150 143
0.533333 0.186667 -0.661398 -0.0321478 0.999448 -0.00831908 146 149 142
0.546667 0.183333 -0.662119 -0.0301792 0.999407 -0.016607 150 152 145
0.543333 0.186667 -0.661945 -0.0688575 0.99738 0.0221662 153 156 148
0.556667 0.183333 -0.662678 -0.0697309 0.997464 -0.0142232 145 148 141
0.553333 0.186667 -0.662501 -0.0673878 0.997589 -0.0165768 151 155 147
0.486667 0.193333 -0.65848 -0.0769005 0.995605 -0.0534445 158 161 153
0.483333 0.196667 -0.658255 -0.120404 0.992679 -0.00955781 157 161 153
0.496667 0.193333 -0.659035 -0.0499174 0.99783 -0.0429364 157 160 153
0.493333 0.196667 -0.659048 -0.0392883 0.997791 -0.0535619 157 160 152
0.502947 0.193333 -0.659516 -0.10576 0.993472 -0.0427489 153 157 149
0.505676 0.196667 -0.65983 -0.0622996 0.998049 -0.00408551 142 146 138
0.50901 0.196667 -0.660039 -0.0646959 0.997896 -0.00424266 127 132 123
0.509614 0.193333 -0.660081 -0.10817 0.994132 0.000834309 136 140 132
0.516667 0.193333 -0.660548 -0.0869549 0.995054 0.0480248 149 153 145
0.513333 0.196667 -0.660254 -0.0399309 0.999202 0.000838564 138 142 134
0.526667 0.193333 -0.661158 -0.0318628 0.99936 0.0162478 143 146 139
0.523333 0.196667 -0.660891 -0.0636847 0.99681 0.0481096 147 151 143
0.536667 0.193333 -0.661649 -0.0321296 0.998882 -0.0346749 146 149 142
0.533333 0.196667 -0.661487 -0.0828408 0.996431 0.0162002 143 146 139
0.546667 0.193333 -0.662218 -0.0688317 0.997006 -0.0352335 152 155 148
0.543333 0.196667 -0.662104 -0.0694539 0.996985 -0.0346091 146 150 142
0.556667 0.193333 -0.662829 -0.0673902 0.997624 -0.014294 153 157 149
0.553333 0.196667 -0.662721 -0.0464601 0.998297 -0.0352792 151 154 147
0.486667 0.203333 -0.658602 -0.120367 0.992373 0.0265901 156 161 153
0.483333 0.206667 -0.658322 -0.0570115 0.997678 -0.0372668 158 163 154
0.496667 0.203333 -0.659312 -0.0393411 0.999132 0.0137057 156 160 151
0.493333 0.206667 -0.659091 -0.0523613 0.99827 0.0267481 156 161 152
0.502729 0.203333 -0.659614 -0.0622943 0.997964 0.0136897 145 150 141
0.505586 0.206667 -0.659784 -0.0754009 0.997149 0.00290709 131 136 127
0.50892 0.206667 -0.660037 -0.0770322 0.997024 0.00296999 115 119 111
0.509396 0.203333 -0.660076 -0.0646965 0.997905 0.000723274 113 119 110
0.516667 0.203333 -0.6606 -0.039847 0.997104 -0.0647686 137 142 134
0.513333 0.206667 -0.660465 -0.10506 0.994466 0.000720781 122 127 119
0.526667 0.203333 -0.661108 -0.0636808 0.996748 -0.049369 148 152 144
0.523333 0.206667 -0.661112 -0.0483035 0.996732 -0.0647444 149 154 146
0.536667 0.203333 -0.66172 -0.0828513 0.996558 -0.00294241 145 148 141
0.533333 0.206667 -0.661608 -0.036491 0.99811 -0.0494364 146 150 142
0.546667 0.203333 -0.662329 -0.0694486 0.996909 0.0367437 144 147 140
0.543333 0.206667 -0.662107 -0.0298404 0.99955 -0.00295125 146 148 142
0.556667 0.203333 -0.663001 -0.0464889 0.998917 -0.00189766 142 145 138
0.553333 0.206667 -0.662723 -0.0849308 0.995711 0.0366995 140 143 137
0.486667 0.213333 -0.658624 -0.0570507 0.998364 0.00383131 158 162 154
0.483333 0.216667 -0.658466 -0.043414 0.999009 -0.00983978 157 162 153
0.496667 0.213333 -0.659246 -0.052369 0.998415 -0.0206048 156 161 152
0.493333 0.216667 -0.659058 -0.0767 0.997047 0.00382625 156 161 152
0.502857 0.213333 -0.659637 -0.0753852 0.996942 -0.0205744 142 146 138
0.505352 0.216667 -0.659853 -0.0589266 0.998242 -0.00640846 141 145 137
0.508686 0.216667 -0.660048 -0.0571996 0.998343 -0.00622064 143 148 139
0.509524 0.213333 -0.660085 -0.0770321 0.997023 -0.00336976 127 131 124
0.516667 0.213333 -0.660734 -0.10503 0.994181 0.0239155 139 143 135
0.513333 0.216667 -0.660394 -0.0779704 0.99695 -0.00336951 143 147 138
0.526667 0.213333 -0.661463 -0.0484035 0.998795 0.0080698 151 155 148
0.523333 0.216667 -0.661221 -0.064286 0.997643 0.0239988 155 160 151
0.536667 0.213333 -0.661882 -0.0365354 0.999325 0.00391124 151 155 147
0.533333 0.216667 -0.661733 -0.0406907 0.999139 0.00807257 154 158 150
0.546667 0.213333 -0.662262 -0.0298377 0.999461 -0.0136721 149 152 145
0.543333 0.216667 -0.662149 -0.0473935 0.998869 0.00390945 153 156 148
0.556667 0.213333 -0.662837 -0.0849797 0.996284 0.0140011 139 141 134
0.553333 0.216667 -0.662599 -0.0574633 0.998254 -0.0136556 146 148 141
0.486667 0.223333 -0.658685 -0.0434128 0.998983 -0.0122099 157 162 153
0.483333 0.226667 -0.658469 -0.076857 0.996813 0.0213551 156 161 153
0.496667 0.223333 -0.659276 -0.0766982 0.997024 0.00781207 155 160 151
0.493333 0.226667 -0.65906 -0.0567735 0.998312 -0.0122017 157 162 153
0.502495 0.223333 -0.659679 -0.058926 0.998232 0.00782153 154 159 150
0.505321 0.226667 -0.659827 -0.0612282 0.998105 0.00609189 145 149 141
0.508655 0.226667 -0.660031 -0.0611517 0.99811 0.00608428 132 136 129
0.509162 0.223333 -0.660079 -0.0572 0.99835 0.00508802 144 148 140
0.516667 0.223333 -0.66053 -0.0779068 0.996136 0.0405304 157 163 153
0.513333 0.226667 -0.660252 -0.0425786 0.99908 0.00509175 143 147 139
0.526667 0.223333 -0.66132 -0.0643008 0.997872 0.0107802 158 162 153
0.523333 0.226667 -0.660969 -0.0938285 0.994765 0.0404746 156 161 152
0.536667 0.223333 -0.661874 -0.0406901 0.999126 -0.00961225 156 159 151
0.533333 0.226667 -0.661702 -0.061032 0.998078 0.0107825 156 159 151
0.546667 0.223333 -0.662309 -0.0473934 0.998867 -0.00432859 154 157 148
0.543333 0.226667 -0.662183 -0.0421207 0.999066 -0.00961168 154 157 148
0.556667 0.223333 -0.662783 -0.0574613 0.99822 0.0159551 148 150 143
0.553333 0.226667 -0.662605 -0.0372205 0.999298 -0.00433045 152 155 147
0.486667 0.233333 -0.658684 -0.0768714 0.997001 -0.00895287 159 163 154
0.483333 0.236667 -0.658535 -0.0535448 0.998041 -0.032369 161 165 156
0.496667 0.233333 -0.659296 -0.0567777 0.998385 -0.00169099 159 163 154
0.493333 0.236667 -0.659136 -0.0495206 0.998733 -0.00896842 162 166 156
0.502827 0.233333 -0.659659 -0.0612292 0.998122 -0.00169055 148 151 143
0.505712 0.236667 -0.659832 -0.0580301 0.998314 0.00103179 134 137 129
0.509046 0.236667 -0.660026 -0.0584277 0.998291 0.00103886 114 117 111
0.509493 0.233333 -0.660057 -0.0611528 0.998127 0.00145449 115 118 112
0.516667 0.233333 -0.6605 -0.0425504 0.998418 -0.0367536 141 146 137
0.513333 0.236667 -0.660353 -0.0806234 0.996744 0.00145247 126 129 122
0.526667 0.233333 -0.661231 -0.0938766 0.995276 -0.0247695 155 159 150
0.523333 0.236667 -0.661039 -0.082064 0.995952 -0.0366628 155 160 150
0.536667 0.233333 -0.661889 -0.0610346 0.99812 -0.00557422 154 157 150
0.533333 0.236667 -0.661768 -0.0417977 0.998817 -0.0248576 156 159 150
0.546667 0.233333 -0.662374 -0.042122 0.999097 -0.00554156 152 155 147
0.543333 0.236667 -0.662252 -0.0420839 0.999098 -0.00557968 153 156 148
0.556667 0.233333 -0.662785 -0.0372181 0.999232 -0.0122891 148 151 143
0.553333 0.236667 -0.662679 -0.0439555 0.999018 -0.00554112 149 151 144
-0.917171 -0.395879 -0.599818 0.198557 0.954928 -0.220652 86 62 9
-0.913837 -0.393333 -0.599726 0.17525 0.963715 -0.201348 87 62 9
-0.913333 -0.396667 -0.599479 0.0196547 0.998716 -0.0467005 88 62 8
-0.908582 -0.396667 -0.599661 -0.171764 0.984063 -0.0460153 90 63 8
-0.906989 -0.393333 -0.599908 -0.0574411 0.998344 0.00301115 90 64 9
-0.926667 -0.393553 -0.600416 -0.173527 0.91031 -0.375797 87 63 11
-0.923333 -0.392546 -0.600744 0.0258653 0.991437 -0.127995 86 61 9
-0.917171 -0.392546 -0.600329 0.11446 0.985251 -0.127197 86 61 8
-0.903656 -0.393333 -0.600077 -0.0440747 0.999026 0.00231046 92 65 10
-0.901915 -0.396667 -0.600401 -0.166542 0.983325 0.0730412 93 66 11
-0.893333 -0.396667 -0.600952 -0.040578 0.995348 0.0873793 95 68 12
-0.896667 -0.393333 -0.600569 -0.0271749 0.996884 0.0740484 94 68 12
-0.883333 -0.396667 -0.600772 0.0990044 0.994956 -0.0161724 95 67 11
-0.886667 -0.393333 -0.600811 -0.00451825 0.996159 0.0874504 95 68 12
-0.901741 -0.386058 -0.599541 -0.0579334 0.984456 0.165802 93 66 11
-0.905074 -0.386667 -0.599449 -0.0566525 0.984639 0.165159 91 64 10
-0.906667 -0.383333 -0.598813 -0.0523867 0.985564 0.160995 90 63 9
-0.893333 -0.383781 -0.59993 -0.0330821 0.997267 0.0660674 95 68 13
-0.896667 -0.382725 -0.599471 -0.114328 0.979646 0.164992 94 67 12
-0.889228 -0.381056 -0.59993 -0.0899942 0.993764 0.0658353 96 68 14
-0.901741 -0.389392 -0.600077 -0.0437283 0.991174 0.125148 92 65 11
-0.896667 -0.389392 -0.600244 -0.0270352 0.99176 0.125222 94 67 12
-0.893333 -0.387115 -0.600168 -0.0367401 0.996628 0.0733727 95 68 13
-0.885894 -0.381056 -0.600338 -0.130216 0.986899 0.0952594 95 67 13
-0.886667 -0.384389 -0.600506 -0.123401 0.989678 0.0728611 95 68 13
-0.883333 -0.386667 -0.600688 -0.00453073 0.998909 -0.0464809 95 68 12
-0.89526 -0.372957 -0.599609 -0.263747 0.94916 -0.171853 94 68 14
-0.893333 -0.37629 -0.599539 -0.26731 0.947382 -0.176104 95 68 14
-0.896667 -0.376667 -0.59908 -0.115892 0.993055 -0.0202896 95 68 13
-0.889228 -0.379624 -0.59993 -0.088683 0.979285 -0.182034 96 68 14
-0.880679 -0.371258 -0.599849 0.215216 0.969636 0.116137 94 66 11
-0.891927 -0.372957 -0.600498 -0.247221 0.955476 -0.161085 93 67 13
-0.880679 -0.374591 -0.600338 0.285377 0.945962 0.153998 94 66 11
-0.884012 -0.373333 -0.600836 0.182856 0.973697 0.135933 93 66 11
-0.885894 -0.379624 -0.600338 -0.126336 0.957492 -0.259321 95 67 13
-0.886667 -0.37629 -0.600836 -0.117897 0.979207 -0.165086 93 66 12
-0.884012 -0.368086 -0.599849 0.207518 0.934952 0.287751 93 66 12
-0.886667 -0.364752 -0.599356 0.225474 0.920133 0.320182 92 66 13
-0.883333 -0.363333 -0.598942 -0.024016 0.99662 0.0785642 94 67 13
-0.891927 -0.368086 -0.600498 -0.242893 0.938747 0.244453 91 66 12
-0.887345 -0.368086 -0.600498 0.178806 0.952132 0.247938 92 65 12
-0.883333 -0.356667 -0.599016 -0.0239688 0.994662 -0.10036 92 66 13
-0.886667 -0.353333 -0.598776 -0.169985 0.984328 0.0469477 91 65 13
-0.883333 -0.346667 -0.598709 -0.168458 0.975488 0.14158 90 64 12
-0.886667 -0.343333 -0.598127 -0.0296576 0.999558 0.00211622 89 64 13
-0.715927 0.160791 -0.609057 0.325528 0.895086 0.304718 27 27 25
-0.716667 0.164124 -0.608151 0.327072 0.890242 0.317006 27 27 25
-0.713333 0.166667 -0.607121 0.0375315 0.998951 0.0262366 28 28 26
-0.703333 0.163333 -0.607047 0.0267925 0.999502 -0.0166772 29 29 27
-0.706667 0.166667 -0.607049 -0.0161361 0.999525 0.0262517 29 29 27
-0.71926 0.160791 -0.610404 0.436879 0.801184 0.408952 26 26 24
-0.713333 0.173333 -0.606902 0.0375153 0.99852 0.0393818 27 27 25
-0.716667 0.176667 -0.606898 0.0383572 0.998521 0.03854 26 26 24
-0.703333 0.173333 -0.606883 -0.0161289 0.999075 0.0398724 29 29 27
-0.706667 0.176667 -0.606697 -0.0156605 0.999101 0.0394047 28 28 26
-0.713333 0.182349 -0.607804 0.0344115 0.895806 -0.443111 27 27 25
-0.716667 0.183809 -0.608966 0.152554 0.806388 -0.571372 27 27 25
-0.703333 0.182391 -0.607728 -0.0142157 0.906924 -0.421055 29 29 27
-0.706667 0.18474 -0.608838 0.00548153 0.896324 -0.443367 28 28 26
-0.716667 0.187142 -0.61227 0.201669 0.623552 -0.755323 26 26 24
-0.713333 0.189016 -0.612599 0.483484 0.830238 -0.277397 27 27 25
-0.706667 0.188073 -0.610329 0.0039179 0.948453 -0.316895 28 28 26
-0.703333 0.189057 -0.611734 -0.177093 0.548214 -0.817374 29 29 27
-0.679642 0.189146 -0.619876 -0.324174 0.936199 0.135805 34 34 32
-0.681564 0.199132 -0.609165 0.359121 0.672594 0.647032 39 39 37
-0.719283 0.196064 -0.618937 0.291431 0.891398 -0.347099 25 25 23
-0.715949 0.196667 -0.617843 0.3609 0.863195 -0.35305 26 26 24
-0.713333 0.193333 -0.614838 0.450937 0.774347 -0.443894 27 27 25
-0.703333 0.193333 -0.614141 -0.295554 0.914926 -0.274878 29 29 27
-0.706667 0.196667 -0.614975 -0.0435314 0.866739 -0.496858 28 28 26
-0.693333 0.193333 -0.615707 -0.221213 0.975205 0.00629071 30 30 28
-0.696667 0.196667 -0.615953 0.0764418 0.954909 -0.286891 30 30 28
-0.681564 0.199132 -0.612305 0.460957 -0.312681 0.830511 37 37 35
-0.68138 0.193991 -0.619876 -0.337651 0.925013 -0.17419 33 33 31
-0.684714 0.196667 -0.618683 -0.506087 0.828316 -0.240353 32 32 30
-0.686667 0.193333 -0.617511 -0.299887 0.953955 0.00615363 32 32 30
-0.719283 0.199398 -0.620157 0.207595 0.946452 -0.247249 24 24 22
-0.68138 0.197324 -0.620461 -0.312613 0.93609 -0.161274 32 32 30
-0.682339 0.206667 -0.608165 0.392706 0.918539 0.0454708 35 35 33
-0.683903 0.203333 -0.609165 0.468201 0.876889 0.108874 36 36 34
-0.712497 0.206667 -0.618522 0.148783 0.96719 -0.205928 26 26 24
-0.715113 0.203333 -0.618906 0.385704 0.922519 -0.0138218 25 25 23
-0.703333 0.203333 -0.615425 -0.0450794 0.897561 0.43858 28 28 26
-0.706667 0.206667 -0.615967 0.537285 0.82491 -0.175635 27 27 25
-0.693333 0.203333 -0.615355 0.0741332 0.92607 0.369998 30 30 28
-0.696667 0.206667 -0.613994 -0.00812954 0.898444 0.439012 29 29 27
-0.718446 0.203333 -0.620157 0.214241 0.976751 -0.00767738 24 24 22
-0.719163 0.206667 -0.620284 0.149692 0.988691 0.00908945 24 24 22
-0.7 0.219998 -0.61 0.761567 0.638734 0.109699 23 23 22
-0.699997 0.219998 -0.61 -0.131681 0.976988 0.167793 23 23 22
-0.71583 0.211248 -0.619616 0.151257 0.983275 0.101446 24 24 22
-0.716667 0.214581 -0.619439 0.144925 0.985894 0.0837198 24 24 22
-0.713333 0.216667 -0.618328 0.26408 0.942337 0.205579 24 24 22
-0.7 0.216664 -0.610778 0.844879 0.520931 0.1217 24 24 23
-0.703334 0.216667 -0.613 0.544531 0.816765 0.190736 25 25 24
-0.706667 0.213333 -0.61595 0.536872 0.824277 0.179823 26 26 24
-0.696664 0.219998 -0.610228 -0.0681643 0.993886 0.0868575 26 26 24
-0.696667 0.216664 -0.611007 -0.0667342 0.971609 0.226988 27 27 25
-0.693333 0.213333 -0.611815 -0.00891419 0.985161 0.171403 29 29 27
-0.719163 0.211248 -0.620127 0.148949 0.983786 0.0998982 24 24 22
-0.553333 0.243333 -0.6109 -0.158709 0.984256 0.0777961 178 191 175
-0.556667 0.246667 -0.610507 -0.0387337 0.998309 -0.0433341 172 184 167
-0.543333 0.243333 -0.611312 0.034887 0.998299 0.0467191 186 199 186
-0.546667 0.246667 -0.611165 0.0026962 0.996887 0.0787945 184 196 182
-0.533333 0.243333 -0.611703 -0.0406957 0.998889 -0.0237696 186 200 186
-0.536667 0.246667 -0.611411 -0.110533 0.992786 0.0464611 191 204 190
-0.523333 0.243333 -0.612164 -0.0310087 0.997761 -0.0592618 179 193 178
-0.526667 0.246667 -0.61214 -0.0665106 0.997503 -0.0237367 190 205 189
-0.513333 0.243333 -0.613021 -0.151253 0.988284 0.0204447 176 190 176
-0.516667 0.246667 -0.612709 -0.0726429 0.995603 -0.0591337 187 200 185
-0.503333 0.243333 -0.61411 -0.0836052 0.99639 0.01474 183 196 181
-0.506667 0.246667 -0.613762 -0.0894229 0.995781 0.0205998 187 201 186
-0.493333 0.243333 -0.614824 -0.0597148 0.998207 0.00414295 191 205 189
-0.496667 0.246667 -0.614576 -0.0702831 0.997418 0.0147552 193 206 190
-0.483333 0.243333 -0.615494 -0.0551222 0.998131 -0.0263864 194 207 190
-0.486667 0.246667 -0.615296 -0.0854967 0.99633 0.00413516 196 209 193
-0.553333 0.253333 -0.610799 -0.0387696 0.999234 -0.0053098 174 186 170
-0.556667 0.256667 -0.61072 -0.0289838 0.999466 -0.0151058 179 191 173
-0.543333 0.253333 -0.610884 0.0027046 0.999993 0.00266645 186 199 184
-0.546667 0.256667 -0.610911 0.0106842 0.999929 -0.0053135 183 195 180
-0.533333 0.253333 -0.611415 -0.110433 0.991892 0.0628938 194 207 192
-0.536667 0.256667 -0.611035 -0.0505295 0.998719 0.00266306 192 205 190
-0.523333 0.253333 -0.612353 -0.0665061 0.997436 0.0264251 197 210 195
-0.526667 0.256667 -0.61192 -0.102836 0.992705 0.0629453 196 209 194
-0.513333 0.253333 -0.61314 -0.0727699 0.997344 0.00316159 196 209 194
-0.516667 0.256667 -0.612808 -0.0958102 0.99505 0.0263619 195 208 193
-0.503333 0.253333 -0.613965 -0.0894389 0.995959 0.00808868 196 209 194
-0.506667 0.256667 -0.613655 -0.0845461 0.996415 0.00315865 195 207 193
-0.493333 0.253333 -0.614684 -0.0702721 0.997261 0.0230804 198 210 195
-0.496667 0.256667 -0.614422 -0.055356 0.998434 0.00810877 197 210 195
-0.483333 0.253333 -0.615478 -0.0854664 0.995977 0.026945 196 209 194
-0.486667 0.256667 -0.615115 -0.0816065 0.996398 0.0230604 197 210 195
-0.559746 0.269754 -0.609979 -0.0806934 0.993249 0.0833306 186 196 181
-0.556412 0.269754 -0.610262 -0.0845742 0.992582 0.0873381 186 196 182
-0.556667 0.26642 -0.610487 -0.083566 0.993875 0.0723172 188 199 183
-0.553333 0.263333 -0.610808 -0.0289826 0.999424 0.0176709 185 196 181
-0.543333 0.263333 -0.611007 0.0106781 0.999354 -0.0343253 187 200 185
-0.546667 0.266667 -0.610984 -0.041302 0.998991 0.0176633 185 196 183
-0.533333 0.263333 -0.611399 -0.0504349 0.996849 -0.0612269 193 206 191
-0.536667 0.266667 -0.611345 -0.0773887 0.996413 -0.0342243 192 205 190
-0.523333 0.263333 -0.612006 -0.10303 0.994575 0.0143186 193 205 192
-0.526667 0.266667 -0.611865 -0.0277119 0.997736 -0.0612814 193 206 192
-0.513333 0.263333 -0.612951 -0.0958092 0.99504 0.0267716 193 205 192
-0.516667 0.266667 -0.612582 -0.0834773 0.996406 0.0143449 193 205 192
-0.503333 0.263333 -0.61388 -0.0845381 0.996321 0.0140663 193 206 193
-0.506667 0.266667 -0.613508 -0.0971403 0.994911 0.0267681 193 205 192
-0.493333 0.263333 -0.614666 -0.0553394 0.998134 -0.025804 195 208 195
-0.496667 0.266667 -0.614434 -0.0949725 0.995381 0.014053 193 206 193
-0.483333 0.263333 -0.615374 -0.0816136 0.996485 -0.0189 196 208 195
-0.486667 0.266667 -0.615187 -0.074781 0.996867 -0.0257712 195 208 195
-0.559746 0.270763 -0.609979 -0.0809456 0.996353 -0.0269933 186 195 181
-0.559746 0.274096 -0.610065 -0.0750424 0.996866 -0.0250248 184 193 180
-0.556412 0.273333 -0.610327 -0.0848704 0.996059 -0.025759 184 194 181
-0.553333 0.276667 -0.610784 -0.116715 0.991478 -0.057875 183 194 181
-0.543333 0.273333 -0.611104 -0.0413052 0.999068 -0.0124967 189 200 188
-0.546667 0.276667 -0.611161 0.00451269 0.99829 -0.0582727 187 198 185
-0.533333 0.273333 -0.611817 -0.0774002 0.996561 -0.0295763 192 205 190
-0.536667 0.276667 -0.6116 -0.0944062 0.995456 -0.0124516 191 203 190
-0.523333 0.273333 -0.612278 -0.0277475 0.999018 -0.034531 192 205 191
-0.526667 0.276667 -0.612284 -0.0326297 0.999028 -0.0296495 192 205 191
-0.513333 0.273333 -0.612819 -0.0834858 0.996508 -0.00156997 192 204 191
-0.516667 0.276667 -0.612655 -0.0506933 0.998118 -0.0344999 192 204 191
-0.503333 0.273333 -0.613724 -0.0971734 0.99525 0.00589988 193 205 192
-0.506667 0.276667 -0.613404 -0.0897696 0.995961 -0.00156911 192 205 192
-0.493333 0.273333 -0.614648 -0.0949679 0.995333 0.0171506 193 206 193
-0.496667 0.276667 -0.61431 -0.0838128 0.996464 0.00590708 193 206 193
-0.483333 0.273333 -0.615377 -0.0747339 0.99624 0.0438295 193 205 193
-0.486667 0.276667 -0.615069 -0.0481889 0.99869 0.0172084 193 206 193
-0.553333 0.283333 -0.611063 -0.116873 0.992825 -0.025288 182 193 180
-0.556667 0.286667 -0.610849 -0.0893119 0.994587 -0.0531015 182 192 180
-0.543333 0.283333 -0.611417 0.00451918 0.999726 -0.0229696 188 200 188
-0.546667 0.286667 -0.611517 0.00701278 0.999651 -0.0254618 185 198 185
-0.533333 0.283333 -0.611681 -0.0940936 0.992159 0.0822548 191 204 190
-0.536667 0.286667 -0.611442 0.01104 0.999675 -0.0229685 190 203 190
-0.523333 0.283333 -0.612126 -0.0324493 0.993504 0.109074 192 204 190
-0.526667 0.286667 -0.611741 -0.00575941 0.996564 0.08262 191 203 190
-0.513333 0.283333 -0.612653 -0.0505387 0.995073 0.0852939 192 204 191
-0.516667 0.286667 -0.612118 -0.0742073 0.991287 0.10883 191 203 190
-0.503333 0.283333 -0.6134 -0.0893876 0.991723 0.0921758 192 205 192
-0.506667 0.286667 -0.612813 -0.0823216 0.992965 0.0851132 192 204 192
-0.493333 0.283333 -0.614383 -0.0836829 0.994919 0.0559771 193 205 192
-0.496667 0.286667 -0.613793 -0.119413 0.988584 0.091884 192 205 192
-0.483333 0.283333 -0.615025 -0.048149 0.997864 0.0441446 191 205 192
-0.486667 0.286667 -0.614677 -0.0600722 0.996618 0.0560727 191 204 191
-0.553333 0.293333 -0.61126 -0.0894208 0.9958 0.0196695 181 192 179
-0.556667 0.296667 -0.611058 -0.0410439 0.998739 -0.0289132 177 188 175
-0.543333 0.293333 -0.611538 0.00701453 0.999901 0.0121982 186 200 186
-0.546667 0.296667 -0.611496 -0.000537767 0.999805 0.0197486 181 194 181
-0.533333 0.293333 -0.611893 0.0109598 0.992418 -0.122417 183 196 184
-0.536667 0.296667 -0.611889 -0.123545 0.992265 0.012105 182 196 182
-0.523333 0.293333 -0.611977 -0.00571679 0.989189 -0.146535 182 195 182
-0.526667 0.296667 -0.612369 -0.0303195 0.992022 -0.122368 175 189 175
-0.513333 0.293333 -0.612491 -0.0738641 0.986702 -0.144789 183 195 183
-0.516667 0.296667 -0.612735 -0.0724793 0.986603 -0.146152 175 188 174
-0.503333 0.293333 -0.613405 -0.0813209 0.980894 -0.17673 185 198 185
-0.506667 0.296667 -0.613617 -0.114349 0.982915 -0.144233 177 190 177
-0.493333 0.293333 -0.614173 -0.119483 0.989159 -0.0853756 188 201 188
-0.496667 0.296667 -0.614371 -0.0264957 0.983808 -0.177255 182 195 181
-0.483333 0.293333 -0.614977 -0.0599467 0.994536 -0.0854679 189 202 189
-0.486667 0.296667 -0.615063 -0.0595743 0.994526 -0.0858389 187 199 186
-0.553333 0.303333 -0.611197 -0.0410448 0.99876 0.0281899 178 190 177
-0.556667 0.306667 -0.610906 -0.0587502 0.997216 0.0459152 181 192 180
-0.543333 0.303333 -0.611442 -0.00053787 0.999995 -0.00321196 182 195 182
-0.546667 0.306667 -0.611346 -0.0319458 0.999092 0.0281993 183 195 182
-0.533333 0.303333 -0.612148 -0.123481 0.991755 0.0342535 181 194 180
-0.536667 0.306667 -0.611744 -0.0864325 0.996253 -0.00319994 186 199 185
-0.523333 0.303333 -0.612945 -0.0305437 0.999358 -0.0187105 175 188 175
-0.526667 0.306667 -0.612728 -0.0834818 0.995915 0.0343972 182 194 181
-0.513333 0.303333 -0.613344 -0.0732105 0.996557 0.0389052 174 187 173
-0.516667 0.306667 -0.613161 -0.0156966 0.999702 -0.0187169 181 194 180
-0.503333 0.303333 -0.614283 -0.115329 0.991337 0.0628548 176 189 175
-0.506667 0.306667 -0.613765 -0.0915167 0.995046 0.0388462 181 194 180
-0.493333 0.303333 -0.615077 -0.0269217 0.999627 -0.00468651 185 197 183
-0.496667 0.306667 -0.614776 -0.0944101 0.993538 0.0629944 186 199 185
-0.483333 0.303333 -0.615571 -0.0597939 0.998192 -0.00609248 188 200 187
-0.486667 0.306667 -0.615387 -0.0612018 0.998114 -0.00467942 192 204 189
-0.553333 0.313333 -0.611059 -0.0587808 0.997735 -0.0326978 184 195 183
-0.556667 0.316667 -0.610747 -0.125302 0.991522 0.034393 181 190 180
-0.543333 0.313333 -0.611471 -0.0319405 0.998927 -0.0335219 186 198 184
-0.546667 0.316667 -0.611473 -0.0327255 0.998928 -0.0327369 185 196 183
-0.533333 0.313333 -0.611946 -0.086396 0.995831 0.0292621 184 195 183
-0.536667 0.316667 -0.611769 -0.023795 0.999154 -0.0335295 183 195 182
-0.523333 0.313333 -0.612871 -0.0835296 0.996485 0.00628733 188 200 187
-0.526667 0.316667 -0.612494 -0.106248 0.993911 0.0292057 185 196 184
-0.513333 0.313333 -0.613441 -0.0156801 0.998649 -0.0495355 186 198 185
-0.516667 0.316667 -0.613368 -0.071429 0.997426 0.00629327 187 199 186
-0.503333 0.313333 -0.614094 -0.0914911 0.994768 -0.045461 188 200 187
-0.506667 0.316667 -0.613953 -0.0876234 0.99493 -0.049351 186 198 185
-0.493333 0.313333 -0.615017 -0.0945201 0.994696 -0.0405704 193 205 191
-0.496667 0.316667 -0.614853 -0.0896543 0.994934 -0.0454686 189 201 188
-0.483333 0.313333 -0.615676 -0.0611894 0.997912 -0.020682 194 206 193
-0.486667 0.316667 -0.615608 -0.0411867 0.998321 -0.0407183 194 205 192
-0.722566 -0.318563 -0.608956 0.312781 0.768302 -0.558462 106 76 19
-0.793333 -0.316667 -0.612362 -0.018378 0.999517 -0.0250428 107 71 15
-0.796667 -0.313333 -0.612434 -0.00371637 0.999205 -0.0396909 108 73 16
-0.783333 -0.316667 -0.612866 -0.0742961 0.997198 -0.00870357 109 74 19
-0.786667 -0.313333 -0.612701 -0.0580616 0.998 -0.0250048 109 73 17
-0.773333 -0.316667 -0.613148 0.0533357 0.990692 -0.125239 110 75 21
-0.776667 -0.313333 -0.613356 -0.0637182 0.99793 -0.00870996 111 76 20
-0.763333 -0.316667 -0.613643 -0.127978 0.989342 -0.0694499 107 74 22
-0.766667 -0.313333 -0.613634 -0.0723714 0.989503 -0.125088 109 75 22
-0.753333 -0.316667 -0.614802 -0.134456 0.990775 -0.0169057 105 73 21
-0.756667 -0.313333 -0.614584 -0.0820922 0.994178 -0.0697894 107 74 22
-0.743333 -0.316667 -0.616497 -0.0950833 0.977012 -0.190808 104 73 21
-0.746667 -0.313333 -0.61623 -0.265618 0.963938 -0.0164478 105 73 21
-0.733333 -0.316667 -0.615832 0.229776 0.900986 -0.368005 104 75 20
-0.736667 -0.313333 -0.617333 0.0410666 0.98063 -0.191514 105 75 21
-0.725899 -0.318563 -0.611207 0.46663 0.296835 -0.833154 106 76 19
-0.723333 -0.31523 -0.613856 0.489445 0.507557 -0.709105 108 77 21
-0.726667 -0.313333 -0.616425 -0.0225181 0.925521 -0.378026 107 76 21
-0.793333 -0.306667 -0.612721 -0.0037159 0.999077 -0.0428033 110 73 16
-0.796667 -0.303333 -0.612704 -0.0480629 0.998843 0.0015546 111 75 18
-0.783333 -0.306667 -0.613056 -0.058064 0.998042 -0.0232698 112 76 18
-0.786667 -0.303333 -0.613005 -0.0385863 0.99834 -0.0427717 112 75 17
-0.773333 -0.306667 -0.613937 -0.0633951 0.992869 -0.100952 112 77 21
-0.776667 -0.303333 -0.613802 -0.140758 0.989775 -0.023077 114 78 20
-0.763333 -0.306667 -0.614662 -0.0725162 0.991482 -0.10819 110 76 23
-0.766667 -0.303333 -0.614758 -0.0799119 0.991689 -0.100832 112 77 22
-0.753333 -0.306667 -0.615467 -0.0817837 0.990442 -0.111073 108 75 22
-0.756667 -0.303333 -0.615555 -0.0847865 0.99052 -0.108085 109 76 23
-0.743333 -0.306667 -0.616825 -0.264064 0.958298 0.109248 106 75 22
-0.746667 -0.303333 -0.61628 -0.0490411 0.992575 -0.111312 107 75 22
-0.733333 -0.306667 -0.617639 0.041762 0.997236 0.0614523 108 76 23
-0.736667 -0.303333 -0.617399 -0.0104337 0.99351 0.113262 108 76 23
-0.723333 -0.306667 -0.617695 -0.0242907 0.998377 0.0515025 109 77 23
-0.726667 -0.303333 -0.617409 -0.0342814 0.99752 0.0614698 110 77 24
-0.793333 -0.296667 -0.613251 -0.0477346 0.992021 -0.116688 111 74 17
-0.796667 -0.293333 -0.613681 0.0111217 0.984626 -0.174318 110 74 18
-0.783333 -0.296667 -0.613508 -0.0385291 0.996859 -0.0691904 114 77 19
-0.786667 -0.293333 -0.613771 0.00950132 0.993108 -0.116816 112 75 18
-0.773333 -0.296667 -0.614909 -0.138918 0.976839 -0.162748 112 78 21
-0.776667 -0.293333 -0.614666 -0.232302 0.970309 -0.0673476 113 78 20
-0.763333 -0.296667 -0.615176 -0.0801935 0.995182 0.0563981 111 77 23
-0.766667 -0.293333 -0.615463 0.139382 0.976775 -0.162737 110 77 21
-0.753333 -0.296667 -0.616758 -0.0841435 0.983007 -0.163146 108 76 22
-0.756667 -0.293333 -0.616283 -0.294129 0.954235 0.0540776 109 76 22
-0.743333 -0.296667 -0.616714 -0.0493232 0.998284 0.0315658 107 76 22
-0.746667 -0.293333 -0.617102 0.144641 0.976132 -0.162005 106 75 21
-0.733333 -0.296667 -0.617028 -0.010501 0.999916 0.00759061 110 76 24
-0.736667 -0.293333 -0.616888 -0.0344929 0.998906 0.0315854 108 76 23
-0.723333 -0.296667 -0.617272 -0.0343431 0.999315 0.0137578 111 78 25
-0.726667 -0.293333 -0.617132 -0.0281786 0.999574 0.00758801 111 77 24
-0.793333 -0.286667 -0.614165 0.0112922 0.999727 0.0204603 110 74 18
-0.796667 -0.283333 -0.614064 -0.00982532 0.999088 0.0415575 111 75 19
-0.783333 -0.286667 -0.614171 0.00956616 0.999885 -0.0117975 114 77 19
-0.786667 -0.283333 -0.614135 -0.0226869 0.999533 0.0204563 113 76 19
-0.773333 -0.286667 -0.615671 -0.232824 0.972491 0.00736758 110 77 20
-0.776667 -0.283333 -0.614912 -0.214881 0.976572 -0.0115224 112 77 20
-0.763333 -0.286667 -0.615858 0.140651 0.985666 -0.0931657 108 77 22
-0.766667 -0.283333 -0.616308 0.0405652 0.999148 0.00756954 106 76 21
-0.753333 -0.286667 -0.616563 -0.290857 0.943621 0.158056 106 75 22
-0.756667 -0.283333 -0.615851 -0.0459614 0.994511 -0.0940017 107 76 22
-0.743333 -0.286667 -0.617086 0.146541 0.988954 0.0222506 106 75 22
-0.746667 -0.283333 -0.617022 0.00313397 0.986256 0.165197 105 75 21
-0.733333 -0.286667 -0.616882 -0.0345097 0.999393 0.00475023 108 76 23
-0.736667 -0.283333 -0.616692 -0.0521922 0.998384 0.0224627 107 76 22
-0.723333 -0.286667 -0.616806 -0.0279842 0.992676 0.117518 110 78 24
-0.726667 -0.283333 -0.616696 0.0851305 0.996359 0.0047358 110 77 23
-0.793333 -0.276667 -0.613811 -0.00982426 0.99898 0.044072 113 75 19
-0.796667 -0.273333 -0.613312 -0.104068 0.984973 0.137835 112 76 20
-0.783333 -0.276667 -0.614045 -0.0226821 0.999322 0.0290102 116 78 21
-0.786667 -0.273333 -0.613823 -0.037721 0.998317 0.0440427 114 77 21
-0.773333 -0.276667 -0.615048 -0.211246 0.960053 0.183504 111 77 20
-0.776667 -0.273333 -0.614217 -0.057805 0.997908 0.0289691 115 78 22
-0.763333 -0.276667 -0.616401 0.0404498 0.996304 -0.0757763 105 75 21
-0.766667 -0.273333 -0.615899 -0.217252 0.958759 0.183256 106 75 20
-0.753333 -0.276667 -0.616412 -0.0461484 0.998558 -0.0274262 105 75 22
-0.756667 -0.273333 -0.616511 0.00236971 0.997117 -0.0758382 105 75 22
-0.743333 -0.276667 -0.616805 0.00316007 0.994468 -0.104988 106 75 22
-0.746667 -0.273333 -0.616907 -0.0746908 0.996831 -0.0273788 105 75 22
-0.733333 -0.276667 -0.616337 -0.0517288 0.989521 0.134807 108 76 22
-0.736667 -0.273333 -0.616515 0.185221 0.977266 -0.103172 107 76 22
-0.723333 -0.276667 -0.616043 0.0846635 0.990893 0.104705 110 77 23
-0.726667 -0.273333 -0.615874 0.054292 0.989386 0.134788 109 77 23
-0.793333 -0.266667 -0.613319 -0.105001 0.993808 -0.0363413 111 75 20
-0.796667 -0.263333 -0.613138 -0.090447 0.994594 -0.0510076 110 75 20
-0.783333 -0.266667 -0.613786 -0.0377572 0.999277 0.00455145 115 78 22
-0.786667 -0.263333 -0.613782 0.00333561 0.999327 -0.0365431 112 76 20
-0.773333 -0.266667 -0.614093 -0.0577035 0.996155 0.0659153 114 78 22
-0.776667 -0.263333 -0.613885 0.00368875 0.999983 0.00455467 116 79 23
-0.763333 -0.266667 -0.615783 -0.220477 0.972994 0.0683616 106 75 21
-0.766667 -0.263333 -0.614807 -0.216744 0.974098 0.0644558 110 76 22
-0.753333 -0.266667 -0.616772 0.00237652 0.999987 -0.00463479 104 74 21
-0.756667 -0.263333 -0.616546 -0.0721505 0.994941 0.0699037 104 74 21
-0.743333 -0.266667 -0.617414 -0.0746279 0.99599 -0.0493314 105 76 22
-0.746667 -0.263333 -0.617179 -0.118971 0.992887 -0.00460189 104 75 22
-0.733333 -0.266667 -0.616468 0.185777 0.980202 -0.0684942 106 77 22
-0.736667 -0.263333 -0.617265 0.166613 0.984815 -0.0487779 106 77 22
-0.723333 -0.266667 -0.615565 0.0545302 0.993727 -0.097635 108 77 23
-0.726667 -0.263333 -0.615981 0.026427 0.997219 -0.0696833 107 77 22
-0.793333 -0.256667 -0.613585 -0.0905619 0.995858 0.00814103 108 75 19
-0.796667 -0.253333 -0.613671 0.0336123 0.992707 -0.115772 106 74 20
-0.783333 -0.256667 -0.613837 0.00333737 0.999853 0.0168051 113 77 21
-0.786667 -0.253333 -0.613821 0.0119693 0.999895 0.00817404 110 76 20
-0.773333 -0.256667 -0.614342 0.00365035 0.989573 -0.143987 113 78 22
-0.776667 -0.253333 -0.614299 -0.156642 0.987516 0.0165977 114 78 22
-0.763333 -0.256667 -0.615396 -0.217154 0.975939 -0.0196979 107 76 22
-0.766667 -0.253333 -0.615139 -0.0957326 0.985034 -0.143326 109 77 22
-0.753333 -0.256667 -0.616627 -0.0723101 0.997142 -0.0219022 103 74 21
-0.756667 -0.253333 -0.616452 -0.0740796 0.997049 -0.020124 104 75 22
-0.743333 -0.256667 -0.61713 -0.117852 0.983544 0.136938 104 75 22
-0.746667 -0.253333 -0.616804 0.0413251 0.998905 -0.021941 103 74 21
-0.733333 -0.256667 -0.616946 0.166765 0.985714 -0.0236141 105 76 22
-0.736667 -0.253333 -0.617045 0.00593931 0.990429 0.137896 104 76 22
-0.723333 -0.256667 -0.616181 0.0264876 0.999506 -0.0169022 106 77 22
-0.726667 -0.253333 -0.61635 0.033518 0.999151 -0.023936 105 76 22
-0.793333 -0.246667 -0.614035 0.033828 0.999076 -0.0265105 105 74 19
-0.796667 -0.243333 -0.613863 -0.0775205 0.993378 0.0847962 106 75 21
-0.783333 -0.246667 -0.614057 0.0119204 0.995813 -0.09063 111 77 21
-0.786667 -0.243333 -0.614185 -0.0524149 0.998274 -0.0264892 107 76 19
-0.773333 -0.246667 -0.614345 -0.155427 0.979852 0.125427 114 78 22
-0.776667 -0.243333 -0.614119 0.0600372 0.994088 -0.090473 114 78 22
-0.763333 -0.246667 -0.615719 -0.0965064 0.992996 0.0681533 105 75 21
-0.766667 -0.243333 -0.614969 -0.153453 0.980158 0.125466 110 76 22
-0.753333 -0.246667 -0.616456 -0.0737751 0.992951 0.0927672 103 75 21
-0.756667 -0.243333 -0.615979 -0.0493308 0.996438 0.0683896 103 74 21
-0.743333 -0.246667 -0.616534 0.0412574 0.997268 0.0612679 101 74 21
-0.746667 -0.243333 -0.616361 0.00933926 0.995621 0.0930166 100 73 20
-0.733333 -0.246667 -0.616529 0.00599632 0.999936 0.00958954 103 75 21
-0.736667 -0.243333 -0.616345 -0.0457147 0.997075 0.061256 101 74 21
-0.723333 -0.246667 -0.616354 0.0335256 0.999379 -0.010808 104 76 21
-0.726667 -0.243333 -0.616434 0.0131399 0.999868 0.00958888 103 75 21
-0.159748 0.000417169 -0.619991 -0.0362833 0.9991 -0.0219569 79 80 77
-0.159748 0.0037505 -0.620061 -0.0346587 0.999179 -0.0209738 81 82 78
-0.156414 0.00333333 -0.620174 -0.0364939 0.999111 -0.0211115 81 81 78
-0.153333 0.00666667 -0.620285 -0.0148947 0.999889 0.00049967 82 82 78
-0.143333 0.00333333 -0.620519 -0.023541 0.999696 -0.00727242 83 83 79
-0.146667 0.00666667 -0.620439 -0.0313071 0.99951 0.00049948 83 83 80
-0.133333 0.00333333 -0.620754 -0.0201165 0.999701 -0.0139195 82 83 78
-0.136667 0.00666667 -0.620711 -0.0267613 0.999615 -0.00727183 84 86 81
-0.123333 0.00333333 -0.621052 -0.0403075 0.999183 -0.00275196 83 83 80
-0.126667 0.00666667 -0.620964 -0.0291558 0.999478 -0.0139164 84 85 80
-0.113333 0.00333333 -0.621511 -0.0363623 0.998969 -0.027186 84 85 81
-0.116667 0.00666667 -0.621399 -0.060747 0.998149 -0.00274911 85 86 82
-0.103333 0.00333333 -0.622136 -0.0820966 0.996534 -0.0134572 84 85 80
-0.106667 0.00666667 -0.621952 -0.0684856 0.997283 -0.0271401 85 86 81
-0.0933333 0.00333333 -0.622734 -0.0679393 0.997361 0.0256166 79 79 76
-0.0966667 0.00666667 -0.622552 -0.0289159 0.999491 -0.0134972 83 83 79
-0.0833333 0.00333333 -0.623279 -0.0420839 0.999008 0.0145882 70 69 67
-0.0866667 0.00666667 -0.623053 -0.0531148 0.998259 0.0256396 75 75 72
-0.159176 0.0186719 -0.619958 -0.0506013 0.998225 0.0314057 172 178 170
-0.155842 0.0186719 -0.620129 -0.0513654 0.998171 0.0318799 173 178 171
-0.156667 0.0153386 -0.62019 -0.0508076 0.998243 0.0304729 139 142 137
-0.153333 0.0133333 -0.620301 -0.0148945 0.999874 -0.0054734 118 120 115
-0.143333 0.0133333 -0.62075 -0.031246 0.99756 -0.062435 118 121 116
-0.146667 0.0166667 -0.620664 -0.088091 0.996098 -0.00545273 152 156 150
-0.133333 0.0133333 -0.620803 -0.0267614 0.999621 0.00646346 121 123 118
-0.136667 0.0166667 -0.620922 0.042162 0.99716 -0.06241 154 158 152
-0.123333 0.0133333 -0.621184 -0.029151 0.999316 -0.0227391 122 125 118
-0.126667 0.0166667 -0.621065 -0.0582911 0.998279 0.00645478 157 160 153
-0.113333 0.0133333 -0.621538 -0.0607329 0.997916 0.0217898 121 123 118
-0.116667 0.0166667 -0.621411 -0.0162633 0.999609 -0.0227458 157 161 154
-0.103333 0.0133333 -0.622091 -0.0684107 0.996192 0.0540498 121 123 117
-0.106667 0.0166667 -0.621789 -0.0362186 0.999106 0.0218158 155 159 152
-0.0933333 0.0133333 -0.622598 -0.0289067 0.999171 0.0286666 118 120 114
-0.0966667 0.0166667 -0.622321 -0.0543363 0.997056 0.0540967 155 158 151
-0.0833333 0.0133333 -0.62295 -0.0530425 0.9969 0.0581079 112 113 108
-0.0866667 0.0166667 -0.622677 -0.0235929 0.99931 0.0286706 151 154 147
-0.159176 0.0205342 -0.619958 -0.0504725 0.995684 -0.0778849 187 193 185
-0.159176 0.0238675 -0.620245 -0.0564503 0.994598 -0.0871093 190 197 188
-0.155842 0.0233333 -0.620374 -0.0512018 0.994992 -0.0858404 190 196 189
-0.153333 0.0266667 -0.620864 -0.0728612 0.991545 -0.10738 194 201 193
-0.143333 0.0233333 -0.621283 -0.0877259 0.991969 -0.0911164 189 194 187
-0.146667 0.0266667 -0.621349 -0.0713936 0.99165 -0.107391 193 199 192
-0.133333 0.0233333 -0.621542 0.0416768 0.985685 -0.163365 190 196 188
-0.136667 0.0266667 -0.621989 -0.0314529 0.995315 -0.0914238 191 197 190
-0.123333 0.0233333 -0.621504 -0.0581077 0.995138 -0.0795255 194 199 191
-0.126667 0.0266667 -0.621862 0.0270524 0.986181 -0.163447 195 200 192
-0.113333 0.0233333 -0.621731 -0.0162412 0.99825 -0.0568614 193 198 190
-0.116667 0.0266667 -0.621943 0.00666196 0.9968 -0.0796584 196 201 192
-0.103333 0.0233333 -0.621992 -0.0361881 0.998263 -0.0464927 191 196 188
-0.106667 0.0266667 -0.622061 -0.0258132 0.998049 -0.0568499 193 198 190
-0.0933333 0.0233333 -0.622513 -0.0543268 0.996881 -0.0572435 190 195 186
-0.0966667 0.0266667 -0.622486 -0.0651364 0.996796 -0.0464244 192 197 188
-0.0833333 0.0233333 -0.622875 -0.0235538 0.997654 -0.0642715 188 193 184
-0.0866667 0.0266667 -0.622988 -0.0305445 0.99789 -0.0573015 190 195 187
-0.153333 0.0333333 -0.621668 -0.0726514 0.98869 -0.131205 197 204 196
-0.156667 0.0366667 -0.621763 -0.102897 0.989537 -0.101134 197 203 195
-0.143333 0.0333333 -0.622269 -0.0714854 0.992925 -0.0948102 194 200 192
-0.146667 0.0366667 -0.622471 -0.0344521 0.990721 -0.131474 195 201 193
-0.133333 0.0333333 -0.622806 -0.0313542 0.992191 -0.12072 195 201 193
-0.136667 0.0366667 -0.623019 -0.0574285 0.993829 -0.0948965 193 198 191
-0.123333 0.0333333 -0.622542 0.0273626 0.997489 -0.0653225 197 203 194
-0.126667 0.0366667 -0.623039 0.0827178 0.989277 -0.120365 196 202 194
-0.113333 0.0333333 -0.622469 0.00665946 0.996425 -0.0842163 196 201 193
-0.116667 0.0366667 -0.62271 -0.0123208 0.997787 -0.065342 196 202 193
-0.103333 0.0333333 -0.622637 -0.0257516 0.995668 -0.0893444 194 198 191
-0.106667 0.0366667 -0.622832 -0.0309531 0.99597 -0.0841778 194 199 191
-0.0933333 0.0333333 -0.623068 -0.0650799 0.995931 -0.0623331 191 197 188
-0.0966667 0.0366667 -0.623149 -0.03802 0.995278 -0.0893094 192 196 189
-0.0833333 0.0333333 -0.623468 -0.0305472 0.997977 -0.0557646 190 195 187
-0.0866667 0.0366667 -0.623574 -0.0238456 0.997763 -0.0624478 189 195 187
-0.153333 0.0433333 -0.622537 -0.103393 0.994307 -0.0257581 196 202 194
-0.156667 0.0466667 -0.622487 -0.0407901 0.995242 -0.0884823 195 202 194
-0.143333 0.0433333 -0.623253 -0.034676 0.997159 -0.0668643 193 199 191
-0.146667 0.0466667 -0.623223 -0.0756808 0.996798 -0.0258226 195 201 193
-0.133333 0.0433333 -0.623717 -0.0575991 0.996783 -0.0557397 194 200 192
-0.136667 0.0466667 -0.623748 -0.0464951 0.99668 -0.0668321 193 199 190
-0.123333 0.0433333 -0.623527 0.0828425 0.990768 -0.107307 196 202 193
-0.126667 0.0466667 -0.623992 0.0311633 0.997955 -0.0558053 196 202 193
-0.113333 0.0433333 -0.623313 -0.0122819 0.994631 -0.102755 195 201 193
-0.116667 0.0466667 -0.623633 -0.00730799 0.994159 -0.107674 196 202 193
-0.103333 0.0433333 -0.623545 -0.0309146 0.994732 -0.0977413 194 199 191
-0.106667 0.0466667 -0.623786 -0.0258812 0.994373 -0.102728 194 200 192
-0.0933333 0.0433333 -0.623865 -0.0380299 0.995537 -0.0863667 191 196 188
-0.0966667 0.0466667 -0.624065 -0.0265579 0.994856 -0.0977536 193 198 190
-0.0833333 0.0433333 -0.62421 -0.0237636 0.994332 -0.103627 189 194 186
-0.0866667 0.0466667 -0.624419 -0.041173 0.995413 -0.0863559 190 195 187
-0.153333 0.0533333 -0.623243 -0.0407604 0.994517 -0.0963089 194 201 193
-0.156667 0.0566667 -0.623375 -0.0569619 0.99515 -0.0801947 193 200 192
-0.143333 0.0533333 -0.623875 -0.075378 0.992809 -0.0929926 192 199 190
-0.146667 0.0566667 -0.623945 -0.0722223 0.992745 -0.0961373 192 199 191
-0.133333 0.0533333 -0.624292 -0.0465418 0.997683 -0.0496246 195 201 193
-0.136667 0.0566667 -0.624449 -0.00271181 0.995638 -0.0932575 193 199 191
-0.123333 0.0533333 -0.624396 0.0310671 0.994875 -0.0962184 195 200 192
-0.126667 0.0566667 -0.624666 -0.0157257 0.998642 -0.0496723 195 200 192
-0.113333 0.0533333 -0.624181 -0.00734204 0.998791 -0.0486015 192 198 190
-0.116667 0.0566667 -0.624479 0.0404806 0.99454 -0.0961859 191 196 188
-0.103333 0.0533333 -0.624488 -0.0259331 0.996368 -0.0811099 190 196 189
-0.106667 0.0566667 -0.624564 -0.0586027 0.997101 -0.0485192 188 194 186
-0.0933333 0.0533333 -0.624792 -0.0265708 0.995339 -0.0927018 189 194 186
-0.0966667 0.0566667 -0.624974 -0.0382707 0.995973 -0.0810778 186 192 184
-0.0833333 0.0533333 -0.625175 -0.0411289 0.994347 -0.0978894 189 194 186
-0.0866667 0.0566667 -0.625347 -0.0464216 0.994618 -0.0926345 186 192 183
-0.153333 0.0633333 -0.623966 -0.0571013 0.997585 -0.0395504 192 200 191
-0.156667 0.0666667 -0.623949 -0.0446754 0.997648 -0.0519824 192 200 191
-0.143333 0.0633333 -0.624542 -0.0725551 0.997319 -0.00951118 192 199 190
-0.146667 0.0666667 -0.624431 -0.0425686 0.998309 -0.0395791 193 200 191
-0.133333 0.0633333 -0.624841 -0.00272307 0.999773 -0.0211439 194 201 192
-0.136667 0.0666667 -0.624864 -0.0143335 0.999852 -0.00953533 193 200 191
-0.123333 0.0633333 -0.624945 -0.0157426 0.999714 -0.0179888 195 200 192
-0.126667 0.0666667 -0.624963 -0.0125885 0.999697 -0.0211423 196 202 194
-0.113333 0.0633333 -0.624998 0.0404693 0.994263 -0.0990076 191 196 188
-0.116667 0.0666667 -0.625193 -0.0408414 0.999004 -0.017976 194 200 191
-0.103333 0.0633333 -0.625124 -0.0585651 0.996461 -0.060287 187 193 185
-0.106667 0.0666667 -0.62526 -0.0195946 0.994888 -0.0990698 192 197 189
-0.0933333 0.0633333 -0.625573 -0.0383291 0.997491 -0.0595122 185 191 183
-0.0966667 0.0666667 -0.625646 -0.0374912 0.997473 -0.0603482 189 195 187
-0.0833333 0.0633333 -0.626073 -0.0464817 0.995906 -0.0775278 187 192 184
-0.0866667 0.0666667 -0.626116 -0.0646071 0.996139 -0.0594315 189 194 185
-0.153333 0.0733333 -0.624451 -0.0446714 0.997559 -0.0536787 196 204 194
-0.156667 0.0766667 -0.624538 -0.0276491 0.997117 -0.0706576 199 207 197
-0.143333 0.0733333 -0.624765 -0.0425953 0.998936 -0.0176928 195 202 193
-0.146667 0.0766667 -0.624802 -0.00653262 0.998534 -0.0537312 198 206 196
-0.133333 0.0733333 -0.625125 -0.0143128 0.998409 -0.0545396 196 203 194
-0.136667 0.0766667 -0.625137 -0.0511753 0.998533 -0.0176857 198 205 195
-0.123333 0.0733333 -0.625315 -0.0125589 0.997349 -0.0716784 198 204 195
-0.126667 0.0766667 -0.625455 -0.0297771 0.998069 -0.054521 200 206 197
-0.113333 0.0733333 -0.625534 -0.0408099 0.998234 -0.0431784 197 203 194
-0.116667 0.0766667 -0.625637 -0.0122356 0.997353 -0.0716786 199 205 197
-0.103333 0.0733333 -0.625829 -0.0196652 0.998474 -0.0516027 196 202 193
-0.106667 0.0766667 -0.625908 -0.0280846 0.998672 -0.0431974 198 204 195
-0.0933333 0.0733333 -0.626219 -0.037458 0.996589 -0.0735284 193 199 190
-0.0966667 0.0766667 -0.626266 -0.0594996 0.996898 -0.0515212 196 202 193
-0.0833333 0.0733333 -0.626692 -0.0646468 0.996752 -0.0480193 193 198 189
-0.0866667 0.0766667 -0.626721 -0.0391169 0.996526 -0.0735238 194 200 191
-0.313333 -0.0766667 -0.616912 0.0381806 0.997888 -0.0525507 40 42 40
-0.316667 -0.0733333 -0.616911 -0.0529068 0.997855 0.0385372 39 41 40
-0.303333 -0.0766667 -0.616671 0.151307 0.935254 -0.320009 42 44 43
-0.306667 -0.0733333 -0.617386 -0.126518 0.990592 -0.0521664 42 44 43
-0.313333 -0.0666667 -0.616714 -0.0528045 0.995926 0.073092 40 42 41
-0.316667 -0.0633333 -0.61631 -0.0477581 0.996538 0.0680581 38 40 39
-0.303333 -0.0666667 -0.617403 -0.12482 0.977293 0.171227 43 45 44
-0.306667 -0.0633333 -0.616732 -0.0258275 0.996985 0.0731697 41 43 42
-0.313333 -0.0566667 -0.615789 -0.0474343 0.989781 0.134472 39 41 40
-0.316667 -0.0533333 -0.615341 0.00163804 0.996296 0.0859727 38 40 39
-0.303333 -0.0566667 -0.615135 -0.0237778 0.917862 0.396187 40 41 40
-0.306667 -0.0533333 -0.614596 0.25834 0.95726 0.130054 39 40 39
-0.313333 -0.0466667 -0.614195 0.00159282 0.968787 0.247888 39 40 39
-0.316667 -0.0433333 -0.614054 0.208527 0.977067 0.0430866 37 39 37
-0.303333 -0.0466667 -0.614343 0.248269 0.919941 -0.303431 39 40 38
-0.306667 -0.0433333 -0.61439 -0.29259 0.926393 0.23704 40 41 39
-0.313333 -0.0366667 -0.61385 0.204979 0.960446 -0.188488 37 39 37
-0.316667 -0.0333333 -0.614464 -0.0118655 0.999508 0.029027 36 38 36
-0.303333 -0.0366667 -0.614231 -0.2996 0.948589 0.102073 40 41 38
-0.306667 -0.0333333 -0.613832 -0.0117569 0.981214 -0.192564 39 40 37
-0.293333 -0.0366667 -0.616831 -0.169224 0.985492 -0.0130074 47 48 45
-0.296667 -0.0333333 -0.6159 -0.279268 0.954702 0.102731 45 46 44
-0.283333 -0.0366667 -0.617448 -0.0346267 0.99848 0.0428882 52 53 52
-0.286667 -0.0333333 -0.617376 0.0214661 0.999683 -0.0131947 51 52 51
-0.273333 -0.0366667 -0.617399 -0.00203149 0.995406 0.0957192 58 61 59
-0.276667 -0.0333333 -0.617249 0.0510527 0.997776 0.042858 57 59 58
-0.263333 -0.0366667 -0.617272 -0.0601767 0.965834 0.252077 62 65 64
-0.266667 -0.0333333 -0.616744 0.101529 0.990265 0.0952247 62 64 63
-0.253333 -0.0366667 -0.616779 0.179069 0.978443 0.102882 63 66 65
-0.256667 -0.0333333 -0.616519 0.0262786 0.967254 0.252447 65 68 67
-0.243333 -0.0366667 -0.616282 -0.0684175 0.976067 0.206429 62 65 63
-0.246667 -0.0333333 -0.615698 0.0360251 0.993872 0.104504 64 67 66
-0.313333 -0.0266667 -0.614818 -0.0117811 0.992402 -0.122472 38 39 37
-0.316667 -0.0233333 -0.615465 0.06883 0.977166 -0.201022 39 40 39
-0.303333 -0.0266667 -0.614494 -0.0119805 0.999881 0.00974158 40 41 38
-0.306667 -0.0233333 -0.614865 0.119397 0.985371 -0.121604 40 42 39
