ply
format ascii 1.0
comment Generated by the ZED SDK.
element vertex 681
property float32 x
property float32 y
property float32 z
property float32 nx
property float32 ny
property float32 nz
property uchar red
property uchar green
property uchar blue
end_header
0.693333 0.0966667 -0.679067 -0.094145 0.994982 -0.0338715 139 144 136
0.700871 0.0933333 -0.679819 -0.134697 0.990749 -0.016516 142 146 138
0.701337 0.0966667 -0.679937 -0.133863 0.990866 -0.0162957 138 141 134
0.70467 0.0966667 -0.680394 -0.135998 0.990571 -0.0165556 140 143 135
0.707538 0.0933333 -0.680732 -0.136165 0.99055 -0.0164296 143 145 137
0.716667 0.0933333 -0.680929 0.0186037 0.999763 -0.0113422 135 138 129
0.713333 0.0966667 -0.681046 0.0238394 0.999578 -0.0165793 139 142 133
0.646667 0.103333 -0.674465 -0.117765 0.99297 -0.0118864 157 162 154
0.643333 0.106667 -0.674172 -0.0992452 0.994592 -0.0306181 157 161 152
0.656667 0.103333 -0.675648 -0.125501 0.992082 0.00469277 158 163 154
0.653333 0.106667 -0.675266 -0.109139 0.993955 -0.0118982 158 164 155
0.666667 0.103333 -0.676635 -0.0691613 0.997262 -0.0261657 148 153 143
0.663333 0.106667 -0.676388 -0.0998168 0.994995 0.00470655 156 161 152
0.676667 0.103333 -0.67748 -0.100754 0.994881 -0.00780287 142 147 138
0.673333 0.106667 -0.67723 -0.0825667 0.996243 -0.0261389 147 152 143
0.686667 0.103333 -0.678458 -0.106751 0.994178 0.0146542 140 146 137
0.683333 0.106667 -0.678126 -0.0844873 0.996394 -0.00781473 146 153 142
0.696667 0.103333 -0.679479 -0.0941977 0.99554 0.00521042 141 146 138
0.693333 0.106667 -0.679114 -0.103555 0.994516 0.0146592 147 153 143
0.700465 0.103333 -0.679857 -0.133879 0.990984 0.00518658 141 146 137
0.701124 0.106667 -0.67992 -0.120944 0.992634 0.0070321 147 152 143
0.704458 0.106667 -0.680318 -0.118003 0.99299 0.00686114 143 146 138
0.707132 0.103333 -0.680712 -0.135982 0.990454 0.0225715 138 141 133
0.716667 0.103333 -0.681132 0.0238298 0.999176 -0.0328556 137 139 130
0.713333 0.106667 -0.681135 -0.0317979 0.999235 0.0227716 139 141 133
0.646667 0.113333 -0.674774 -0.0991689 0.993827 -0.0497399 156 161 152
0.643333 0.116667 -0.674545 -0.118017 0.992537 -0.0306987 156 161 152
0.656667 0.113333 -0.675838 -0.109013 0.992813 -0.0493786 155 160 151
0.653333 0.116667 -0.675639 -0.108705 0.992831 -0.0496901 153 158 149
0.666667 0.113333 -0.676816 -0.0997648 0.994476 -0.0326176 155 161 151
0.663333 0.116667 -0.676647 -0.0829914 0.99532 -0.0495033 153 159 150
0.676667 0.113333 -0.677713 -0.0825419 0.995944 -0.0358191 151 157 147
0.673333 0.116667 -0.677547 -0.0856818 0.995787 -0.0326606 152 157 147
0.686667 0.113333 -0.678479 -0.0844826 0.996338 -0.0131353 151 158 147
0.683333 0.116667 -0.678316 -0.061853 0.99744 -0.0358729 151 157 146
0.696667 0.113333 -0.679365 -0.103556 0.994525 0.0140295 151 157 147
0.693333 0.116667 -0.679062 -0.0766032 0.996975 -0.0131437 150 156 145
0.700659 0.113333 -0.679792 -0.120935 0.992562 0.0140018 152 158 147
0.701476 0.116667 -0.679873 -0.154095 0.988029 0.0072714 150 155 144
0.704809 0.116667 -0.680384 -0.150894 0.988524 0.00712034 151 155 145
0.707326 0.113333 -0.680702 -0.117983 0.992819 -0.0197773 148 151 143
0.716667 0.113333 -0.681312 -0.0317754 0.99853 -0.0439036 139 141 133
0.713333 0.116667 -0.681272 -0.055772 0.998245 -0.0198854 144 146 137
0.646667 0.123333 -0.675074 -0.118068 0.992965 -0.00897723 158 164 155
0.643333 0.126667 -0.674773 -0.0989664 0.994688 -0.0282989 160 165 157
0.656667 0.123333 -0.67633 -0.108715 0.992928 -0.047695 148 152 145
0.653333 0.126667 -0.675996 -0.146867 0.989116 -0.00894243 153 158 150
0.666667 0.123333 -0.677046 -0.0830857 0.99645 0.0135397 152 156 147
0.663333 0.126667 -0.676928 -0.0217288 0.998613 -0.047968 148 151 145
0.676667 0.123333 -0.678031 -0.0856978 0.995973 -0.0263218 152 156 147
0.673333 0.126667 -0.677699 -0.125059 0.992058 0.01348 153 157 149
0.686667 0.123333 -0.678682 -0.0618885 0.998013 -0.0118173 150 156 146
0.683333 0.126667 -0.678564 -0.0473546 0.998529 -0.0263894 151 155 147
0.696401 0.129376 -0.679656 -0.111316 0.992653 -0.0474282 150 156 145
0.696667 0.126043 -0.679529 -0.111177 0.992705 -0.0466564 150 155 144
0.693333 0.123333 -0.679145 -0.0766045 0.996992 -0.0118052 150 155 145
0.700816 0.122709 -0.679873 -0.153933 0.986992 -0.0463879 149 154 142
0.699734 0.129376 -0.680029 -0.109592 0.992879 -0.0466935 149 155 143
0.700816 0.126043 -0.680029 -0.154026 0.986976 -0.0464159 149 154 143
0.70415 0.123333 -0.680413 -0.15074 0.98752 -0.0456159 150 154 143
0.706667 0.126667 -0.680813 -0.110456 0.99387 -0.00465573 150 154 143
0.716667 0.123333 -0.681526 -0.0557831 0.998443 -0.000266613 142 145 136
0.713333 0.126667 -0.681355 -0.0513841 0.998668 -0.00467821 146 149 140
0.646667 0.133333 -0.675341 -0.0989173 0.994195 -0.0423325 160 166 157
0.643333 0.136667 -0.675042 -0.131279 0.991299 -0.00955965 160 165 157
0.656667 0.133333 -0.676521 -0.146873 0.989155 -0.000120747 148 152 145
0.653333 0.136667 -0.676168 -0.10534 0.993536 -0.0423044 153 158 150
0.666667 0.133333 -0.67736 -0.0217153 0.997988 -0.0595647 151 155 148
0.663333 0.136667 -0.677288 -0.0810541 0.99671 -0.000121669 146 150 144
0.676667 0.133333 -0.678042 -0.125065 0.992105 0.00927979 153 157 149
0.673333 0.136667 -0.677821 -0.0568288 0.99661 -0.0594825 155 159 151
0.686667 0.133333 -0.678889 -0.0473579 0.998599 -0.0236256 151 156 147
0.683333 0.136667 -0.6787 -0.0801743 0.996737 0.00932312 152 156 148
0.693067 0.133333 -0.679391 -0.111411 0.993496 -0.0235049 150 156 146
0.694831 0.136667 -0.679735 -0.148435 0.987216 -0.0580752 149 155 145
0.698164 0.136667 -0.68022 -0.138363 0.988901 -0.0541347 147 152 142
0.699734 0.133333 -0.680249 -0.109535 0.992367 -0.0566625 148 153 142
0.706667 0.133333 -0.680993 -0.110326 0.992698 -0.0487745 151 155 144
0.703333 0.136667 -0.680813 -0.102462 0.993119 -0.0567055 149 154 143
0.716667 0.133333 -0.681638 -0.0513636 0.99827 -0.028614 142 146 137
0.713333 0.136667 -0.68163 -0.0309308 0.998317 -0.0490506 148 152 142
0.646667 0.143333 -0.675556 -0.131275 0.99127 -0.0122517 162 168 159
0.643333 0.146667 -0.675188 -0.122015 0.992292 -0.0216594 164 171 161
0.656667 0.143333 -0.676822 -0.105317 0.993316 -0.0472513 147 152 145
0.653333 0.146667 -0.67651 -0.139837 0.990099 -0.0122372 156 162 154
0.666667 0.143333 -0.67759 -0.0810506 0.996666 -0.00938328 150 156 149
0.663333 0.146667 -0.677478 -0.0430783 0.997943 -0.0474714 146 152 145
0.676667 0.143333 -0.678287 -0.0569146 0.998114 -0.0229897 155 160 152
0.673333 0.146667 -0.678128 -0.0704619 0.99747 -0.00939086 156 162 154
0.686667 0.143333 -0.67901 -0.0801582 0.996537 -0.0220942 151 156 148
0.683333 0.146667 -0.678819 -0.0793029 0.996586 -0.0229545 153 157 150
0.691763 0.143333 -0.679544 -0.14865 0.988647 -0.0219193 149 155 146
0.693679 0.146667 -0.679809 -0.0993039 0.995047 0.00455108 148 154 145
0.697013 0.146667 -0.680142 -0.0999799 0.994979 0.00458206 147 153 143
0.69843 0.143333 -0.680362 -0.13853 0.990092 0.0229485 146 152 142
0.706667 0.143333 -0.681457 -0.102572 0.994186 -0.0327673 151 155 145
0.703333 0.146667 -0.681036 -0.157284 0.987288 0.0228835 148 153 143
0.716667 0.143333 -0.681862 -0.0309663 0.999463 0.0107288 145 149 140
0.713333 0.146667 -0.681868 0.0127026 0.999377 -0.0329384 150 154 144
0.646667 0.153333 -0.675758 -0.122002 0.992189 -0.026025 165 172 162
0.643333 0.156667 -0.67548 -0.108927 0.993274 -0.039262 164 171 162
0.656667 0.153333 -0.677011 -0.139847 0.990168 0.00328616 153 158 150
0.653333 0.156667 -0.676627 -0.110959 0.993483 -0.0260589 160 165 157
0.666667 0.153333 -0.677915 -0.043092 0.99826 -0.0402436 153 159 152
0.663333 0.156667 -0.67776 -0.086474 0.996249 0.00330634 151 156 149
0.676667 0.153333 -0.678561 -0.0703782 0.996286 -0.0496045 156 161 154
0.673333 0.156667 -0.67846 -0.079796 0.996002 -0.0401526 157 162 155
0.686667 0.153333 -0.679199 -0.0793189 0.996786 -0.0112172 152 157 150
0.683333 0.156667 -0.679099 -0.0409534 0.997925 -0.0496861 154 158 151
0.691916 0.153333 -0.679655 -0.0992987 0.994995 -0.011197 149 155 147
0.694048 0.156667 -0.679846 -0.0719091 0.9974 0.00465781 149 155 147
0.697381 0.156667 -0.680094 -0.0779784 0.996942 0.00505094 149 155 145
0.698583 0.153333 -0.680236 -0.0999705 0.994885 0.0144597 148 154 144
0.706667 0.153333 -0.681515 -0.157321 0.987518 -0.00766978 152 157 147
0.703333 0.156667 -0.680936 -0.178669 0.983805 0.0142986 151 156 146
0.716667 0.153333 -0.682155 0.0126822 0.997765 -0.0656032 145 150 141
0.713333 0.156667 -0.682223 -0.0452251 0.998947 -0.00775854 150 154 145
0.646667 0.723333 -0.69015 0.0138381 0.99988 -0.0069114 141 145 135
0.643333 0.726667 -0.690229 0.0165604 0.999816 -0.00963416 145 149 140
0.656667 0.723333 -0.690559 -0.0529514 0.997908 -0.037085 146 153 141
0.653333 0.726667 -0.690405 -0.0830234 0.996524 -0.0068882 138 143 133
0.666667 0.723333 -0.691068 -0.0393551 0.997555 -0.0577503 157 164 152
0.663333 0.726667 -0.69106 -0.0600307 0.997508 -0.0370702 155 161 150
0.676667 0.723333 -0.691352 -0.0299874 0.998605 -0.0434574 161 169 156
0.673333 0.726667 -0.691445 -0.0156274 0.998207 -0.057788 161 167 155
0.686667 0.723333 -0.691987 -0.0910379 0.995621 -0.0212232 162 169 156
0.683333 0.726667 -0.691828 -0.0690064 0.996673 -0.0433733 162 169 157
0.696667 0.723333 -0.693135 -0.154861 0.987158 0.0392161 159 165 154
0.693333 0.726667 -0.692683 -0.0953743 0.995215 -0.0212145 161 167 155
0.706667 0.723333 -0.694209 -0.0721327 0.997214 0.0190279 150 156 146
0.703333 0.726667 -0.693835 -0.0925078 0.994927 0.0395247 155 161 150
0.716667 0.723333 -0.6948 -0.0521887 0.998465 0.0185643 150 157 146
0.713333 0.726667 -0.694562 -0.0526744 0.99843 0.0190512 150 155 145
0.646667 0.733333 -0.690317 0.016552 0.999311 -0.033226 134 138 129
0.643333 0.736667 -0.690396 -0.00942926 0.999929 -0.00725504 142 147 136
0.656667 0.733333 -0.690887 -0.082904 0.995091 -0.054047 143 148 138
0.653333 0.736667 -0.69072 -0.103757 0.994053 -0.0330512 135 140 130
0.666667 0.733333 -0.691474 -0.0600504 0.997835 -0.0268126 157 163 152
0.663333 0.736667 -0.691455 -0.0326721 0.997995 -0.0542048 153 159 148
0.676667 0.733333 -0.691778 -0.0156481 0.999526 -0.0265148 161 167 156
0.673333 0.736667 -0.691816 -0.0153049 0.999522 -0.0268579 161 166 155
0.686667 0.733333 -0.692168 -0.0690675 0.997555 0.0106398 162 168 156
0.683333 0.736667 -0.692026 -0.0320158 0.999136 -0.0265045 162 168 156
0.696667 0.733333 -0.693121 -0.095386 0.995338 -0.0142992 159 165 154
0.693333 0.736667 -0.692766 -0.119985 0.992719 0.0105882 161 166 155
0.706667 0.733333 -0.694035 -0.092578 0.995682 -0.00679123 152 157 147
0.703333 0.736667 -0.693773 -0.0851151 0.996268 -0.0143125 155 160 149
0.716667 0.733333 -0.694724 -0.0526782 0.998501 -0.0148779 153 159 148
0.713333 0.736667 -0.694571 -0.0607231 0.998131 -0.00680793 151 156 146
0.640656 0.74897 -0.689942 -0.0882198 0.994517 0.0561577 157 165 152
0.643989 0.74897 -0.690251 -0.0932052 0.993878 0.0593312 149 156 144
0.643333 0.745636 -0.690381 -0.0921748 0.994171 0.0559264 148 155 142
0.646667 0.743333 -0.690542 -0.00942607 0.99959 -0.0270199 138 144 132
0.656667 0.743333 -0.691153 -0.103811 0.994568 0.00765624 142 148 137
0.653333 0.746667 -0.690895 -0.0694552 0.997221 -0.0269558 138 144 132
0.666667 0.743333 -0.691841 -0.0327066 0.999049 -0.0288498 156 161 150
0.663333 0.746667 -0.691706 -0.0691451 0.997577 0.00767941 153 158 147
0.676667 0.743333 -0.692032 -0.0153064 0.999622 -0.0228185 161 165 155
0.673333 0.746667 -0.692077 -0.00925783 0.99954 -0.028864 160 164 154
0.686667 0.743333 -0.692344 -0.0320053 0.998809 -0.0368289 161 166 155
0.683333 0.746667 -0.692313 -0.0460283 0.99868 -0.022797 160 165 154
0.696667 0.743333 -0.693241 -0.11993 0.992262 -0.0321437 157 163 152
0.693333 0.746667 -0.692961 -0.115529 0.99263 -0.0366011 158 164 152
0.706667 0.743333 -0.694094 -0.0851234 0.996365 0.00344355 152 157 146
0.703333 0.746667 -0.693918 -0.0494967 0.998251 -0.0323377 153 159 148
0.716667 0.743333 -0.694877 -0.0607068 0.997863 -0.0241487 153 158 147
0.713333 0.746667 -0.694663 -0.0881483 0.996101 0.00344264 150 156 145
0.640656 0.752405 -0.689942 -0.0883336 0.9958 -0.0240885 159 166 153
0.640656 0.755739 -0.690023 -0.0906501 0.995576 -0.0247202 159 166 153
0.643989 0.753333 -0.690274 -0.0933399 0.995314 -0.0252477 151 157 145
0.646667 0.756667 -0.690586 -0.0864148 0.996092 -0.0182694 145 151 138
0.656667 0.753333 -0.691224 -0.0694803 0.997581 -0.00196362 146 152 140
0.653333 0.756667 -0.691053 -0.0531917 0.998416 -0.018312 142 147 135
0.666667 0.753333 -0.691848 -0.0691345 0.997424 0.0191385 156 161 150
0.663333 0.756667 -0.691623 -0.0481009 0.998841 -0.0019661 153 159 148
0.676667 0.753333 -0.692325 -0.00925562 0.999302 -0.0361991 159 164 154
0.673333 0.756667 -0.692231 -0.0645277 0.997732 0.0191444 158 163 153
0.686667 0.753333 -0.692684 -0.0459994 0.998053 -0.0421312 159 164 153
0.683333 0.756667 -0.692651 -0.0519738 0.997994 -0.0361517 159 163 153
0.696667 0.753333 -0.693531 -0.115589 0.993145 -0.0174046 155 161 150
0.693333 0.756667 -0.693283 -0.091234 0.994943 -0.042 156 162 151
0.706667 0.753333 -0.694191 -0.0495226 0.998773 -8.38204e-05 149 155 144
0.703333 0.756667 -0.694084 -0.0321211 0.999331 -0.017513 150 156 145
0.716667 0.753333 -0.695068 -0.0880906 0.995449 -0.0363557 152 158 146
0.713333 0.756667 -0.694773 -0.123968 0.992286 -8.3276e-05 149 155 143
0.646667 0.763333 -0.690565 -0.086403 0.995956 0.0246041 145 151 139
0.643333 0.766667 -0.690377 -0.031784 0.999038 -0.0302062 153 159 146
0.656667 0.763333 -0.691444 -0.0531457 0.997554 -0.0454132 146 152 141
0.653333 0.766667 -0.691184 -0.122537 0.992161 0.0245103 141 148 136
0.666667 0.763333 -0.691701 -0.0480837 0.998484 0.0267767 156 161 150
0.663333 0.766667 -0.691692 0.0241531 0.998674 -0.0454642 153 159 148
0.676667 0.763333 -0.692321 -0.0645289 0.997751 0.0181552 157 162 152
0.673333 0.766667 -0.692016 -0.0730734 0.996968 0.026736 157 162 151
0.686667 0.763333 -0.692925 -0.0520069 0.998629 0.00593515 157 162 152
0.683333 0.766667 -0.692691 -0.0641878 0.997773 0.0181556 156 162 151
0.696667 0.763333 -0.693819 -0.0912824 0.995471 -0.0265667 154 160 149
0.693333 0.766667 -0.693493 -0.123377 0.992342 0.00589779 155 161 149
0.706667 0.763333 -0.694313 -0.0321204 0.999307 -0.0188163 148 154 143
0.703333 0.766667 -0.694294 -0.0242686 0.99935 -0.0266703 150 156 145
0.716667 0.763333 -0.695045 -0.123853 0.991365 0.0430818 150 155 144
0.713333 0.766667 -0.694691 -0.0625114 0.997867 -0.0187892 148 153 142
0.646667 0.773333 -0.690731 -0.0317677 0.998526 -0.0440176 144 150 137
0.643333 0.776667 -0.6907 -0.0530502 0.998333 -0.0227206 151 157 144
0.656667 0.773333 -0.691487 -0.12257 0.992429 0.00781393 145 151 140
0.653333 0.776667 -0.691222 -0.0712971 0.996487 -0.0439278 140 145 134
0.666667 0.773333 -0.69178 0.0241778 0.999695 -0.00499573 154 161 150
0.663333 0.776667 -0.691834 0.0113133 0.999905 0.00787279 152 158 146
0.676667 0.773333 -0.692315 -0.0730321 0.996405 -0.0429359 156 161 150
0.673333 0.776667 -0.692087 -0.110703 0.993841 -0.00496648 156 162 151
0.686667 0.773333 -0.692995 -0.0641338 0.996933 -0.044845 155 161 150
0.683333 0.776667 -0.692924 -0.0660174 0.996893 -0.042957 155 161 150
0.696667 0.773333 -0.693902 -0.123378 0.992351 -0.00414136 153 158 147
0.693333 0.776667 -0.693637 -0.0831457 0.995531 -0.0447819 154 160 149
0.706667 0.773333 -0.694514 -0.0242745 0.999593 -0.0150085 148 154 143
0.703333 0.776667 -0.694447 -0.0351038 0.999375 -0.00417067 150 155 144
0.716667 0.773333 -0.69506 -0.0624958 0.997619 -0.0291586 150 155 144
0.713333 0.776667 -0.694902 -0.0766239 0.996948 -0.0149688 148 154 143
0.646667 0.783333 -0.690844 -0.0530354 0.998055 0.0327578 143 149 137
0.643333 0.786667 -0.69074 0.00155602 0.99976 -0.0218682 150 156 144
0.656667 0.783333 -0.691712 -0.071331 0.99696 -0.03133 143 148 136
0.653333 0.786667 -0.691364 -0.134489 0.990382 0.032506 139 144 133
0.666667 0.783333 -0.691829 0.0113119 0.999784 -0.017437 153 159 147
0.663333 0.786667 -0.691971 0.0252785 0.999187 -0.0313999 149 155 143
0.676667 0.783333 -0.692421 -0.11069 0.993724 0.016141 155 162 150
0.673333 0.786667 -0.692108 -0.0774601 0.996844 -0.0173858 155 162 150
0.686667 0.783333 -0.693204 -0.0660573 0.997495 0.0252966 155 161 149
0.683333 0.786667 -0.692929 -0.0570056 0.998242 0.0162144 155 161 149
0.696667 0.783333 -0.69406 -0.0832291 0.996529 0.0018247 151 158 146
0.693333 0.786667 -0.693697 -0.106406 0.994003 0.025208 153 160 147
0.706667 0.783333 -0.694659 -0.0350939 0.999092 -0.0241404 148 154 143
0.703333 0.786667 -0.694536 -0.0610051 0.998136 0.00182764 149 155 144
0.716667 0.783333 -0.6953 -0.0766031 0.996676 -0.0277167 150 155 144
0.713333 0.786667 -0.695125 -0.0802225 0.996486 -0.0240774 148 155 143
0.646667 0.793333 -0.690924 0.00155544 0.999385 -0.0350203 144 149 137
0.643333 0.796667 -0.691014 -0.00807666 0.999645 -0.0253969 150 156 144
0.656667 0.793333 -0.691683 -0.134557 0.990878 0.00743128 143 148 136
0.653333 0.796667 -0.691347 -0.0927948 0.995074 -0.0348692 141 146 134
0.666667 0.793333 -0.69205 0.0252871 0.999527 -0.017524 151 158 145
0.663333 0.796667 -0.692109 0.000267021 0.999972 0.00749948 148 154 142
0.676667 0.793333 -0.692532 -0.0774324 0.996487 -0.0319005 154 162 149
0.673333 0.796667 -0.692331 -0.0917827 0.995626 -0.0174557 154 162 148
0.686667 0.793333 -0.693127 -0.0570032 0.9982 -0.0186507 154 161 149
0.683333 0.796667 -0.693044 -0.0437132 0.998533 -0.031966 154 162 149
0.696667 0.793333 -0.694103 -0.106355 0.993527 -0.0399088 151 158 145
0.693333 0.796667 -0.693808 -0.127462 0.99167 -0.0185288 153 159 147
0.706667 0.793333 -0.694773 -0.0610008 0.998066 -0.0120083 147 154 142
0.703333 0.796667 -0.694704 -0.0329374 0.998652 -0.0401146 148 155 142
0.716667 0.793333 -0.695564 -0.0802168 0.996415 -0.0268656 151 157 144
0.713333 0.796667 -0.695335 -0.0949976 0.995405 -0.0119763 149 155 143
0.806667 0.483333 -0.694219 -0.111847 0.99363 -0.0137516 133 136 131
0.803333 0.486667 -0.693761 -0.149617 0.988436 0.0246747 132 135 131
0.816667 0.483333 -0.69416 0.0176854 0.996584 0.0806638 125 128 123
0.813333 0.486667 -0.694265 0.11181 0.993634 -0.0137516 130 133 127
0.826667 0.483333 -0.694916 -0.0271576 0.993747 -0.108304 121 125 118
0.823333 0.486667 -0.694555 -0.211641 0.974162 0.0788489 121 125 119
0.836667 0.483333 -0.69614 -0.202696 0.978662 -0.0336818 120 125 118
0.833333 0.486667 -0.695812 -0.130636 0.985594 -0.107416 120 125 118
0.846667 0.483333 -0.697266 -0.110251 0.992293 0.0565675 116 119 114
0.843333 0.486667 -0.69701 -0.0196684 0.999215 -0.0343892 117 120 115
0.856667 0.483333 -0.697536 0.07988 0.994117 -0.0731526 114 116 111
0.853333 0.486667 -0.697614 -0.0500952 0.997126 0.056843 111 113 108
0.865238 0.482076 -0.692341 0.684315 0.556921 -0.470693 118 118 116
0.866667 0.48541 -0.693408 0.684333 0.555918 -0.471851 110 111 108
0.863333 0.486667 -0.695994 0.413824 0.907902 -0.0668084 109 110 107
0.806667 0.493333 -0.694075 -0.149587 0.988239 0.0317269 133 136 130
0.803333 0.496667 -0.693416 -0.16307 0.985563 0.0455291 131 135 129
0.816667 0.493333 -0.694112 0.111668 0.992373 -0.0522186 125 129 123
0.813333 0.496667 -0.69438 0.0277765 0.999099 0.0320756 129 133 126
0.826667 0.493333 -0.694867 -0.212116 0.97635 0.041811 122 126 119
0.823333 0.496667 -0.694318 -0.120753 0.991311 -0.0521627 121 125 119
0.836667 0.493333 -0.696525 -0.131347 0.990956 0.0274442 121 126 119
0.833333 0.496667 -0.695941 -0.145959 0.988385 0.0423264 122 128 120
0.846667 0.493333 -0.697357 -0.0196554 0.998558 -0.0499614 115 119 113
0.843333 0.496667 -0.697199 -0.0969164 0.994911 0.0275538 120 125 117
0.856667 0.493333 -0.697038 -0.0495003 0.985286 0.163588 109 111 107
0.853333 0.496667 -0.697037 0.163392 0.985329 -0.0492995 114 116 111
0.806667 0.503333 -0.69353 -0.162667 0.983128 0.083655 131 135 129
0.803333 0.506667 -0.693137 -0.0327899 0.998336 -0.0474444 131 135 128
0.816667 0.503333 -0.6942 0.0277903 0.999596 -0.00600191 124 128 122
0.813333 0.506667 -0.694009 -0.0629405 0.994424 0.0846162 128 132 126
0.826667 0.503333 -0.694714 -0.120733 0.991154 0.0551036 121 127 119
0.823333 0.506667 -0.694328 -0.0601013 0.998174 -0.00599337 121 125 119
0.836667 0.503333 -0.696203 -0.146041 0.98894 0.0258643 123 129 121
0.833333 0.506667 -0.695525 -0.174141 0.983202 0.0546615 123 129 120
0.846667 0.503333 -0.697173 -0.096666 0.992341 0.0769134 121 126 119
0.843333 0.506667 -0.696762 -0.0459942 0.9986 0.026117 124 129 121
0.856667 0.503333 -0.696557 0.163528 0.986148 0.0277625 118 120 115
0.853333 0.506667 -0.696851 0.115347 0.990355 0.0767595 121 124 118
0.806667 0.513333 -0.693581 -0.0327814 0.998077 -0.0526177 131 135 128
0.803333 0.516667 -0.69387 0.033865 0.992344 -0.118774 131 136 128
0.816667 0.513333 -0.694113 -0.0630793 0.996617 -0.0526928 125 129 123
0.813333 0.516667 -0.694078 -0.0632313 0.996615 -0.0525407 128 132 126
0.826667 0.513333 -0.694415 -0.0600542 0.997393 0.0400108 122 127 120
0.823333 0.516667 -0.694391 0.0327126 0.998071 -0.0527697 123 127 121
0.836667 0.513333 -0.69572 -0.174066 0.98278 0.0620011 124 130 121
0.833333 0.516667 -0.694996 -0.152225 0.987552 0.039616 124 129 120
0.846667 0.513333 -0.696522 -0.0458173 0.99476 0.0913918 123 127 120
0.843333 0.516667 -0.696158 -0.0172361 0.997868 0.0629529 123 128 120
0.856667 0.513333 -0.697031 0.112335 0.964493 -0.239026 122 125 119
0.853333 0.516667 -0.697113 -0.216996 0.972079 0.0893079 121 125 118
0.869122 0.519097 -0.700234 -0.250005 0.937269 -0.242949 118 119 116
0.806667 0.523333 -0.694511 0.033914 0.993779 -0.106079 131 136 128
0.803333 0.526667 -0.694546 -0.0958057 0.995122 0.0235433 132 137 129
0.816667 0.523333 -0.69461 -0.063259 0.997051 -0.043443 125 128 122
0.813333 0.526667 -0.694754 -0.000273107 0.994351 -0.10614 126 130 124
0.826667 0.523333 -0.694641 0.0327092 0.997964 -0.0547513 124 129 122
0.823333 0.526667 -0.694895 0.0214591 0.998822 -0.0435201 123 127 120
0.836667 0.523333 -0.695646 -0.151859 0.985173 -0.0798303 126 131 122
0.833333 0.526667 -0.695315 -0.177193 0.982698 -0.0539137 125 131 122
0.846667 0.523333 -0.696254 -0.0172226 0.997084 -0.0743371 123 128 120
0.843333 0.526667 -0.696466 -0.0107597 0.996675 -0.0807624 126 131 122
0.856667 0.523333 -0.697625 -0.217815 0.975749 -0.0216706 122 125 119
0.853333 0.526667 -0.697129 -0.167989 0.983061 -0.0732915 123 127 120
0.868314 0.526667 -0.700203 -0.243839 0.969803 0.00506571 105 106 102
0.869122 0.523333 -0.700437 -0.257717 0.966179 0.00894146 110 112 108
0.806667 0.533333 -0.695062 -0.0955138 0.99209 -0.0814505 131 136 129
0.803333 0.536667 -0.694992 -0.102319 0.991949 -0.0746202 132 138 129
0.816667 0.533333 -0.695243 -0.000274444 0.99922 -0.0394742 123 127 121
0.813333 0.536667 -0.695516 0.0421409 0.995761 -0.0817519 127 131 125
0.826667 0.533333 -0.695295 0.0213776 0.995031 -0.0972469 122 127 120
0.823333 0.536667 -0.695498 -0.0366898 0.998548 -0.0394476 121 125 118
0.836667 0.533333 -0.696164 -0.177419 0.983947 -0.0192477 126 131 122
0.833333 0.536667 -0.695889 -0.101137 0.990155 -0.0967704 124 129 121
0.846667 0.533333 -0.697062 -0.0107544 0.996186 -0.0865902 125 130 122
0.843333 0.536667 -0.697091 -0.0779031 0.99677 -0.0194986 126 130 122
0.856667 0.533333 -0.697749 -0.168151 0.984011 0.058708 126 129 122
0.853333 0.536667 -0.697469 -0.0242013 0.995952 -0.0865698 125 129 122
0.806667 0.543333 -0.695739 -0.102499 0.993696 -0.0454044 133 139 130
0.803333 0.546667 -0.695539 -0.105068 0.993543 -0.0428126 133 139 130
0.816667 0.543333 -0.696058 0.0419673 0.991659 -0.121862 123 127 120
0.813333 0.546667 -0.696351 -0.0348165 0.998352 -0.0456171 128 132 125
0.826667 0.543333 -0.696117 -0.0365001 0.993384 -0.108886 122 127 120
0.823333 0.546667 -0.696405 -0.0232865 0.992265 -0.121936 120 124 118
0.836667 0.543333 -0.696889 -0.101112 0.989916 -0.0992091 124 129 121
0.833333 0.546667 -0.696914 -0.091809 0.989848 -0.108499 124 129 121
0.846667 0.543333 -0.697706 -0.0776287 0.993259 -0.0860781 124 128 121
0.843333 0.546667 -0.697779 -0.0641437 0.992966 -0.0995148 125 128 121
0.856667 0.543333 -0.698266 -0.0240958 0.991613 -0.126978 125 128 122
0.853333 0.546667 -0.698474 -0.0653041 0.994139 -0.0861544 124 127 120
0.806667 0.553333 -0.696021 -0.105164 0.994447 0.00407423 134 139 131
0.803333 0.556667 -0.695779 -0.0682233 0.99712 -0.0331379 133 138 131
0.816667 0.553333 -0.696733 -0.0348328 0.998818 -0.0338878 126 130 122
0.813333 0.556667 -0.696603 -0.0727053 0.997345 0.00408611 132 135 128
0.826667 0.553333 -0.697038 -0.0234393 0.998775 -0.0435791 121 125 118
0.823333 0.556667 -0.697073 -0.0331353 0.998876 -0.0338898 121 125 117
0.836667 0.553333 -0.697859 -0.092056 0.992512 -0.0802887 124 128 121
0.833333 0.556667 -0.697695 -0.128807 0.990727 -0.0432279 122 127 119
0.846667 0.553333 -0.698538 -0.0643375 0.995965 -0.0625594 123 126 120
0.843333 0.556667 -0.698592 -0.0463152 0.995674 -0.0805446 123 126 120
0.856667 0.553333 -0.69899 -0.0655476 0.997847 -0.00230673 124 127 121
0.853333 0.556667 -0.69898 -0.00517771 0.99802 -0.0626884 123 126 119
0.866243 0.556667 -0.700617 -0.256794 0.964111 -0.0674371 111 111 107
0.868559 0.553333 -0.700878 -0.177574 0.978559 -0.104357 104 104 101
0.721232 0.00333333 -0.679749 -0.0385788 0.998168 0.0465988 127 129 123
0.723271 0.00666667 -0.679797 -0.0991741 0.994781 0.0239885 132 135 128
0.726604 0.00666667 -0.680141 -0.108459 0.993755 0.0262342 136 139 132
0.727899 0.00333333 -0.680226 -0.0404521 0.999039 -0.0168524 138 142 135
0.736667 0.00333333 -0.681035 -0.10061 0.994434 -0.0312885 142 146 137
0.733333 0.00666667 -0.680754 -0.114984 0.993226 -0.0167543 141 145 138
0.746667 0.00333333 -0.682069 -0.101911 0.994166 -0.0353228 141 145 137
0.743333 0.00666667 -0.681832 -0.105923 0.993883 -0.0312711 140 144 135
0.756667 0.00333333 -0.682871 -0.0614128 0.996841 -0.0503547 144 147 139
0.753333 0.00666667 -0.682784 -0.0763199 0.996455 -0.0354041 142 145 137
0.766667 0.00333333 -0.683978 -0.151993 0.988295 -0.0130971 135 137 130
0.763333 0.00666667 -0.683633 -0.115603 0.992031 -0.0501117 139 142 134
0.776667 0.00333333 -0.685117 -0.0895154 0.995754 -0.0214919 125 126 121
0.773333 0.00666667 -0.684862 -0.0977495 0.995124 -0.0131876 127 128 123
0.786667 0.00333333 -0.685425 -0.00260879 0.999823 -0.0186506 128 130 125
0.783333 0.00666667 -0.685488 0.00032036 0.999767 -0.0215785 125 127 122
0.796667 0.00333333 -0.6861 -0.109603 0.993974 0.00186552 130 133 127
0.793333 0.00666667 -0.685795 -0.0893548 0.995826 -0.0185836 132 134 128
0.722039 0.0121945 -0.679797 -0.098784 0.990868 -0.0917688 129 132 125
0.722039 0.0155279 -0.680109 -0.102401 0.990184 -0.0951292 125 127 121
0.725372 0.0133333 -0.680251 -0.107968 0.989262 -0.0985037 132 135 128
0.726667 0.0166667 -0.680449 -0.0266895 0.999497 -0.017127 132 136 129
0.736667 0.0133333 -0.6812 -0.115 0.993365 -0.00132628 140 144 136
0.733333 0.0166667 -0.680871 -0.0994577 0.994896 -0.0170482 139 144 136
0.746667 0.0133333 -0.682402 -0.105918 0.993838 -0.0326801 139 142 135
0.743333 0.0166667 -0.682051 -0.136823 0.990595 -0.00132259 139 143 135
0.756667 0.0133333 -0.683194 -0.0763633 0.997021 -0.0108243 142 145 137
0.753333 0.0166667 -0.683048 -0.054455 0.997977 -0.0328162 141 143 136
0.766667 0.0133333 -0.68427 -0.115715 0.992995 -0.023887 134 137 130
0.763333 0.0166667 -0.683918 -0.128645 0.991632 -0.0107658 140 142 135
0.776667 0.0133333 -0.685328 -0.0977191 0.994815 -0.0281811 125 126 121
0.773333 0.0166667 -0.685081 -0.101937 0.994503 -0.0239233 128 130 124
0.786667 0.0133333 -0.68565 0.000320316 0.999629 -0.0272345 128 131 125
0.783333 0.0166667 -0.685745 0.00140324 0.999598 -0.0283166 126 128 122
0.796667 0.0133333 -0.686173 -0.0893691 0.995985 -0.00518236 130 133 127
0.793333 0.0166667 -0.685965 -0.0675085 0.997349 -0.0271723 130 133 127
0.726667 0.0233333 -0.680652 -0.026668 0.998693 -0.0436136 131 134 127
0.723333 0.0266667 -0.680557 -0.0718732 0.997412 0.00168173 125 127 121
0.736667 0.0233333 -0.681291 -0.0994683 0.995002 -0.0087755 138 143 134
0.733333 0.0266667 -0.681103 -0.0649177 0.99694 -0.043537 138 142 134
0.746667 0.0233333 -0.682471 -0.136812 0.990509 0.0132474 139 142 135
0.743333 0.0266667 -0.68204 -0.115153 0.993309 -0.00876057 138 143 134
0.756667 0.0233333 -0.683455 -0.054452 0.997921 -0.0344741 140 143 135
0.753333 0.0266667 -0.683229 -0.101943 0.994701 0.0133035 139 142 134
0.766667 0.0233333 -0.684506 -0.128571 0.991066 -0.0354622 136 138 131
0.763333 0.0266667 -0.684189 -0.129781 0.990952 -0.0342333 137 140 133
0.776667 0.0233333 -0.685553 -0.101955 0.994676 -0.0150106 128 130 124
0.773333 0.0266667 -0.68533 -0.0814858 0.996037 -0.0356401 130 133 126
0.786667 0.0233333 -0.685853 0.00140379 0.999984 -0.00553885 130 132 126
0.783333 0.0266667 -0.685908 0.0109539 0.999826 -0.0150883 128 130 124
0.796667 0.0233333 -0.686363 -0.0675133 0.997419 -0.0244195 129 131 125
0.793333 0.0266667 -0.686156 -0.0863072 0.996253 -0.00551819 131 132 127
0.726667 0.0333333 -0.680855 -0.0718606 0.997238 -0.0187925 131 134 127
0.723333 0.0366667 -0.680748 -0.0506676 0.997912 -0.0400468 129 132 125
0.736667 0.0333333 -0.681627 -0.064904 0.996731 -0.0481058 137 141 133
0.733333 0.0366667 -0.681473 -0.0940996 0.995386 -0.0187577 136 140 132
0.746667 0.0333333 -0.682556 -0.115107 0.992909 -0.0296952 138 143 134
0.743333 0.0366667 -0.68233 -0.0969993 0.994127 -0.0479801 136 142 133
0.756667 0.0333333 -0.683567 -0.101944 0.994714 -0.0122943 140 144 136
0.753333 0.0366667 -0.683325 -0.0845958 0.99597 -0.0297867 141 145 136
0.766667 0.0333333 -0.684747 -0.129857 0.991531 -0.0018685 133 135 129
0.763333 0.0366667 -0.684351 -0.119617 0.992744 -0.0122699 137 141 133
0.776667 0.0333333 -0.685781 -0.0815249 0.996515 -0.0176385 130 132 126
0.773333 0.0366667 -0.685515 -0.0971636 0.995267 -0.00187554 131 133 127
0.786667 0.0333333 -0.686025 0.0109499 0.999461 -0.0309586 131 134 128
0.783333 0.0366667 -0.686121 -0.00231897 0.999841 -0.0176974 131 133 127
0.796667 0.0333333 -0.686419 -0.0863012 0.996184 0.0130117 130 132 126
0.793333 0.0366667 -0.686234 -0.042536 0.998616 -0.0309325 132 135 129
0.726667 0.0433333 -0.681231 -0.0506349 0.997268 -0.0537848 136 139 131
0.723333 0.0466667 -0.68107 -0.101591 0.994823 -0.00257298 132 135 126
0.736667 0.0433333 -0.681914 -0.0940996 0.995385 -0.0188108 134 139 131
0.733333 0.0466667 -0.681778 -0.0593107 0.996791 -0.0537591 136 140 132
0.746667 0.0433333 -0.682793 -0.0971088 0.99525 0.00694773 137 142 134
0.743333 0.0466667 -0.682531 -0.0714972 0.997263 -0.0188463 135 141 133
0.756667 0.0433333 -0.683749 -0.0846269 0.996337 -0.0123219 142 146 137
0.753333 0.0466667 -0.683443 -0.103721 0.994582 0.00694307 140 145 136
0.766667 0.0433333 -0.684964 -0.119473 0.991549 -0.0505715 134 137 130
0.763333 0.0466667 -0.684604 -0.157137 0.987501 -0.0122127 138 142 134
0.776667 0.0433333 -0.685747 -0.0971211 0.994831 0.0296615 131 133 126
0.773333 0.0466667 -0.685592 -0.0167834 0.998561 -0.0509291 129 132 125
0.786667 0.0433333 -0.68617 -0.0023193 0.999984 0.00524131 133 136 129
0.783333 0.0466667 -0.686063 -0.026872 0.999195 0.0297917 132 135 127
0.796667 0.0433333 -0.686549 -0.0425471 0.998877 -0.0208658 131 134 127
0.793333 0.0466667 -0.686389 -0.0685629 0.997633 0.00522899 132 136 128
0.726667 0.0533333 -0.681395 -0.101588 0.994799 0.00738479 131 135 126
0.723333 0.0566667 -0.681106 -0.0789063 0.996762 -0.0154831 127 130 122
0.736667 0.0533333 -0.68222 -0.059386 0.998056 -0.0189146 135 140 132
0.733333 0.0566667 -0.681996 -0.0855592 0.996306 0.00739598 135 139 130
0.746667 0.0533333 -0.682886 -0.0715006 0.997311 -0.0160852 137 142 133
0.743333 0.0566667 -0.682711 -0.0686955 0.997459 -0.0189033 134 139 131
0.756667 0.0533333 -0.683911 -0.103628 0.993689 -0.0429326 138 142 133
0.753333 0.0566667 -0.683617 -0.130227 0.991355 -0.0159891 136 140 131
0.766667 0.0533333 -0.685011 -0.156963 0.986405 0.0486685 131 133 127
0.763333 0.0566667 -0.684625 -0.066373 0.996865 -0.0430698 132 135 128
0.776667 0.0533333 -0.685886 -0.0168017 0.999651 -0.0204015 129 132 125
0.773333 0.0566667 -0.685665 -0.0861291 0.995073 0.0490962 126 129 123
0.786667 0.0533333 -0.686188 -0.0268619 0.99882 -0.0404719 131 135 127
0.783333 0.0566667 -0.686167 -0.0469431 0.99869 -0.0203819 129 134 126
0.796667 0.0533333 -0.686771 -0.0684753 0.996359 -0.0508016 130 133 126
0.793333 0.0566667 -0.686677 -0.0788816 0.996067 -0.0403603 130 133 126
0.726667 0.0633333 -0.681454 -0.078912 0.996834 -0.00974992 134 138 129
0.723333 0.0666667 -0.681162 -0.0968596 0.995263 0.00833739 136 140 131
0.736667 0.0633333 -0.682216 -0.0855548 0.996255 0.0125414 135 139 130
0.733333 0.0666667 -0.681962 -0.0633764 0.997942 -0.00976075 138 143 134
0.746667 0.0633333 -0.683139 -0.0686513 0.996817 -0.0405276 136 140 132
0.743333 0.0666667 -0.682867 -0.121206 0.992549 0.0124947 136 141 133
0.756667 0.0633333 -0.684292 -0.130052 0.99002 -0.0542777 134 138 129
0.753333 0.0666667 -0.683989 -0.143897 0.988776 -0.0402007 137 141 132
0.766667 0.0633333 -0.685013 -0.0664331 0.997768 -0.0067065 125 128 121
0.763333 0.0666667 -0.684974 -0.0184475 0.998331 -0.0547333 130 132 124
0.776667 0.0633333 -0.685948 -0.0861369 0.995164 -0.0472102 126 129 122
0.773333 0.0666667 -0.685681 -0.126252 0.991976 -0.00666756 124 126 119
0.786667 0.0633333 -0.686502 -0.0469272 0.998351 -0.033057 128 133 125
0.783333 0.0666667 -0.686503 -0.0326226 0.998345 -0.0473611 128 131 124
0.796667 0.0633333 -0.687055 -0.0789443 0.996859 0.00637335 126 130 123
0.793333 0.0666667 -0.686901 -0.0396352 0.998667 -0.0330674 126 130 123
0.726667 0.0733333 -0.681465 -0.0968628 0.995296 -0.00176929 142 147 137
0.723333 0.0766667 -0.681112 -0.106969 0.994226 0.00844249 138 142 132
0.736667 0.0733333 -0.682254 -0.063373 0.997889 -0.0141759 141 147 137
0.733333 0.0766667 -0.682048 -0.0757173 0.997128 -0.00177254 143 149 139
0.746667 0.0733333 -0.683265 -0.12121 0.99258 -0.00962501 139 144 135
0.743333 0.0766667 -0.682905 -0.116791 0.993056 -0.0141073 140 145 136
0.756667 0.0733333 -0.684497 -0.143933 0.989022 0.0334574 139 143 134
0.753333 0.0766667 -0.684044 -0.101474 0.994791 -0.00964645 140 145 136
0.766667 0.0733333 -0.68535 -0.0184608 0.999047 -0.0395512 128 130 123
0.763333 0.0766667 -0.685176 -0.0914586 0.995239 0.0336677 135 138 130
0.776667 0.0733333 -0.686191 -0.126233 0.991824 -0.0187057 122 125 118
0.773333 0.0766667 -0.685899 -0.105863 0.993602 -0.0393357 122 124 118
0.786667 0.0733333 -0.686863 -0.0326465 0.999076 -0.0279435 127 132 124
0.783333 0.0766667 -0.686817 -0.0417424 0.998951 -0.0188401 124 128 121
0.796667 0.0733333 -0.687281 -0.0396232 0.998365 -0.0412075 125 129 122
0.793333 0.0766667 -0.687242 -0.0528989 0.998209 -0.0279193 127 132 124
0.593333 -0.348118 -0.682222 -0.210721 0.912018 0.35188 76 59 25
0.596667 -0.345716 -0.681496 -0.0823023 0.845964 0.52685 78 59 24
0.603333 -0.347598 -0.682052 0.232867 0.825508 0.514111 81 61 24
0.606667 -0.34507 -0.680556 -0.00804504 0.976624 0.214805 83 61 24
0.614161 -0.340806 -0.680607 -0.228781 0.944739 0.234793 83 60 24
0.613333 -0.344139 -0.681163 -0.223925 0.951854 0.209357 84 62 25
0.616667 -0.346667 -0.682614 -0.252083 0.938051 0.237726 84 62 25
0.626667 -0.346667 -0.684281 -0.1196 0.958024 0.260549 85 63 26
0.623333 -0.343333 -0.68302 -0.1025 0.964251 0.244366 84 62 25
0.636667 -0.346667 -0.6855 -0.0539817 0.988887 0.138519 101 79 38
0.633333 -0.343333 -0.684412 -0.177097 0.949698 0.258285 93 71 32
0.596499 -0.330084 -0.679489 -0.152028 0.9413 -0.3014 78 59 25
0.596667 -0.333418 -0.67903 -0.153588 0.978414 -0.138263 79 60 25
0.593333 -0.336667 -0.678658 0.0262968 0.998774 0.0419407 78 60 27
0.606667 -0.338988 -0.679428 -0.102666 0.988584 -0.110275 83 61 25
0.603333 -0.335739 -0.679541 -0.0934665 0.985828 -0.139311 82 61 24
0.599833 -0.330084 -0.680056 -0.269315 0.801493 -0.533927 80 59 23
0.603333 -0.332405 -0.680056 -0.348629 0.780029 -0.519628 81 59 23
0.606667 -0.332321 -0.680426 -0.0923326 0.983361 -0.156449 82 60 24
0.619274 -0.333914 -0.680607 0.169512 0.962425 0.212142 82 60 25
0.615941 -0.333333 -0.680976 0.137203 0.968828 0.20627 82 60 25
0.614161 -0.338988 -0.680607 -0.231125 0.954419 -0.188854 83 60 24
0.613333 -0.335654 -0.680976 -0.221853 0.962969 -0.153204 83 60 25
0.62364 -0.33058 -0.681291 -0.384088 0.900762 0.20274 85 63 27
0.623333 -0.333914 -0.681898 -0.383789 0.901774 0.198773 85 62 27
0.626667 -0.336667 -0.682859 -0.105198 0.989626 -0.0978437 86 63 27
0.636667 -0.336667 -0.68436 -0.182885 0.980736 -0.0686213 93 71 32
0.633333 -0.333333 -0.684068 -0.15492 0.983134 -0.0972017 87 65 27
0.593166 -0.326667 -0.67944 -0.157965 0.978061 -0.135809 78 60 27
0.593481 -0.323333 -0.679952 -0.150939 0.980076 -0.129107 79 60 27
0.619274 -0.329328 -0.6799 0.13498 0.980067 -0.145769 82 60 25
0.620306 -0.329328 -0.6799 -0.307351 0.941242 -0.139995 82 60 25
0.596814 -0.323333 -0.680553 -0.17802 0.972174 -0.15227 80 61 26
0.599833 -0.326667 -0.680609 -0.315388 0.938608 -0.139804 80 60 25
0.606667 -0.326667 -0.680851 -0.0934706 0.995481 -0.0167848 82 60 25
0.603333 -0.323333 -0.681034 0.0377491 0.988383 -0.147218 81 60 26
0.615941 -0.329328 -0.680369 0.138638 0.97896 -0.149719 82 60 25
0.616667 -0.325994 -0.68106 0.155986 0.956036 -0.248321 81 59 25
0.613333 -0.323333 -0.681486 -0.0794562 0.996697 -0.0168053 82 59 26
0.620306 -0.325994 -0.680691 -0.483216 0.847383 -0.220099 82 60 25
0.62364 -0.326667 -0.681982 -0.382522 0.897089 -0.221155 84 62 27
0.626667 -0.323333 -0.683153 -0.142341 0.989178 0.0355908 84 62 27
0.636667 -0.326667 -0.684802 -0.155558 0.987181 0.0357148 86 64 26
0.633333 -0.323333 -0.684157 -0.155368 0.987218 0.0355203 85 63 26
-0.230989 0.599028 -0.640493 -0.406423 0.81481 -0.413407 59 60 59
-0.228795 0.599028 -0.640493 0.342945 0.837703 -0.425022 56 57 55
-0.201377 0.599143 -0.640375 -0.242229 0.888856 -0.388921 73 74 73
-0.196667 0.597726 -0.640375 -0.067122 0.914074 -0.399955 75 77 75
-0.193333 0.598583 -0.641039 -0.0783064 0.902628 -0.423239 72 74 72
-0.186667 0.596644 -0.640664 -0.0664403 0.903407 -0.423605 78 80 78
-0.183333 0.59806 -0.641784 -0.11761 0.859942 -0.496656 69 71 69
-0.176667 0.59591 -0.64112 -0.0316408 0.865518 -0.499877 78 80 77
-0.173333 0.597849 -0.642374 -0.0345381 0.863432 -0.503281 70 72 69
-0.166667 0.595168 -0.641254 -0.0799055 0.861185 -0.501971 83 86 83
-0.163333 0.597319 -0.642701 -0.0511109 0.878816 -0.474416 73 74 72
-0.237655 0.605814 -0.640481 -0.461252 0.772729 -0.436047 57 59 57
-0.234322 0.603333 -0.640974 -0.408068 0.818108 -0.40519 52 54 52
-0.233333 0.606667 -0.641362 0.0280131 0.99911 0.0315271 43 44 43
-0.190505 0.60586 -0.640664 0.376242 0.896071 0.235581 47 47 47
-0.193838 0.606667 -0.641662 0.323601 0.917349 0.231846 49 50 49
-0.196667 0.603333 -0.642037 -0.0849707 0.979446 -0.182936 61 62 61
-0.186667 0.602527 -0.641784 -0.131128 0.958784 0.252068 54 55 54
-0.183333 0.605606 -0.64112 -0.0565985 0.938255 0.341284 43 43 43
-0.176214 0.609746 -0.641801 -0.384981 0.615685 0.687547 34 34 34
-0.176667 0.606413 -0.642921 -0.470886 0.829052 0.301562 41 41 41
-0.173333 0.603333 -0.644175 -0.0394414 0.986012 -0.161941 50 51 50
-0.163333 0.603333 -0.644662 -0.0573844 0.986684 -0.15219 52 53 52
-0.166667 0.606667 -0.645016 -0.047474 0.985667 -0.161884 43 44 43
-0.233333 0.613333 -0.64099 0.0279377 0.996424 0.0797461 38 38 38
-0.236667 0.616667 -0.640687 -0.0108935 0.99293 0.1182 34 35 34
-0.193838 0.610858 -0.640998 0.326472 0.925489 -0.19206 37 37 37
-0.193333 0.614192 -0.641698 0.337127 0.905941 -0.256155 36 37 36
-0.196667 0.616667 -0.642866 0.138951 0.989008 -0.0505551 36 36 36
-0.186667 0.616303 -0.6407 0.101771 0.957277 -0.270671 32 32 32
-0.183333 0.618778 -0.64085 0.161422 0.979485 -0.12063 31 31 31
-0.179547 0.615445 -0.64015 -0.495013 0.86237 -0.106206 32 32 32
-0.176214 0.613333 -0.641951 -0.526977 0.842774 -0.109667 33 33 33
-0.173333 0.616667 -0.643742 -0.441408 0.897302 0.00290265 32 32 32
-0.163333 0.613333 -0.64512 -0.0473403 0.982891 0.178001 32 33 32
-0.166667 0.616667 -0.644949 0.128622 0.991689 0.00320798 32 32 32
-0.233333 0.623333 -0.641426 -0.0104186 0.949646 -0.313153 30 30 30
-0.236667 0.626667 -0.642133 -0.114163 0.969646 -0.216223 30 30 30
-0.223333 0.623333 -0.642182 -0.121666 0.953199 -0.276785 31 31 31
-0.226667 0.626667 -0.642856 -0.0835244 0.946379 -0.312076 30 30 30
-0.193333 0.623333 -0.643297 0.13597 0.967791 -0.211881 31 31 31
-0.196667 0.626667 -0.643998 -0.00879794 0.997547 -0.0694474 31 31 31
-0.183333 0.623333 -0.642211 0.153089 0.928922 -0.337148 30 30 30
-0.186667 0.626667 -0.64349 0.0203049 0.976661 -0.213823 30 30 30
-0.173333 0.623333 -0.643845 -0.441202 0.896883 -0.0306962 30 30 30
-0.176667 0.626667 -0.643415 -0.151642 0.929131 -0.337224 30 30 30
-0.163333 0.623333 -0.645158 0.126271 0.973567 -0.190321 30 30 30
-0.166667 0.626667 -0.645704 -0.0315287 0.998918 -0.0341884 30 30 30
-0.233333 0.633333 -0.643573 -0.116451 0.989078 -0.0903491 29 29 29
-0.236667 0.636667 -0.643573 -0.0903264 0.989078 -0.116474 29 29 29
-0.223333 0.633333 -0.644666 -0.0872402 0.988481 -0.123673 29 29 29
-0.226667 0.636667 -0.644677 -0.120631 0.988582 -0.0903037 29 29 29
-0.213333 0.633333 -0.645222 -0.0419107 0.99211 -0.118155 29 29 29
-0.216667 0.636667 -0.645499 -0.0359209 0.991623 -0.124066 29 29 29
-0.203333 0.633333 -0.645505 0.0728243 0.951288 -0.299578 29 29 29
-0.206667 0.636667 -0.646158 -0.117611 0.986091 -0.117438 29 29 29
-0.163333 0.633333 -0.6464 -0.0312293 0.989432 -0.141592 29 29 29
-0.166667 0.636667 -0.646908 0.00916883 0.98345 -0.180946 28 28 28
0.359678 0.240325 -0.569678 0.579101 0.579101 -0.573833 112 136 77
0.369533 0.240467 -0.560467 0.577348 -0.577348 -0.577356 106 134 63
0.360322 0.240325 -0.569678 -0.579101 0.579101 -0.573833 112 136 77
0.372923 0.240467 -0.5638 0.569764 -0.581103 -0.58111 108 135 63
0.376257 0.240877 -0.566667 0.574054 -0.583878 -0.574063 110 136 64
0.376667 0.240891 -0.563333 -0.133656 0.116815 -0.984119 107 135 63
0.359678 0.240325 -0.572681 0.707759 -0.0850036 -0.701321 111 135 76
0.359472 0.240376 -0.599627 0.448617 0.63511 -0.62879 110 128 75
0.359472 0.240376 -0.600436 0.475172 -0.575016 -0.666009 110 129 76
0.378695 0.251281 -0.598729 0.568757 0.584027 -0.579162 136 152 107
0.381281 0.251281 -0.598729 -0.575735 0.580569 -0.575733 131 147 102
0.378695 0.251281 -0.603304 0.675294 -0.266681 -0.687648 126 141 96
0.381281 0.251281 -0.603304 -0.681932 -0.264463 -0.681929 121 136 91
-0.0621265 0.326667 -0.640153 -0.0990767 0.99468 -0.02821 164 172 161
-0.0605887 0.323333 -0.640185 -0.0542303 0.997869 -0.0362766 163 172 161
-0.0533333 0.323333 -0.640768 -0.0873274 0.99584 -0.0260296 163 172 161
-0.0566667 0.326667 -0.640597 -0.0771943 0.996358 -0.0362217 164 173 162
-0.0433333 0.323333 -0.641595 -0.0769403 0.996514 -0.0322435 163 173 161
-0.0466667 0.326667 -0.641425 -0.0831104 0.9962 -0.026039 163 173 162
-0.0333333 0.323333 -0.642294 -0.0546606 0.997004 -0.054729 163 172 161
-0.0366667 0.326667 -0.642219 -0.0770915 0.996503 -0.0322431 163 172 161
-0.0233333 0.323333 -0.64316 -0.109233 0.993225 -0.0396541 164 173 162
-0.0266667 0.326667 -0.642976 -0.094442 0.994034 -0.054566 163 172 161
-0.0133333 0.323333 -0.644005 -0.0827335 0.99642 -0.017386 164 174 163
-0.0166667 0.326667 -0.643861 -0.0603958 0.99738 -0.03982 164 173 162
-0.00333333 0.323333 -0.644775 -0.0666816 0.997272 -0.0316593 163 172 162
-0.00666667 0.326667 -0.64461 -0.0808833 0.996572 -0.0173886 163 172 162
-0.0626424 0.336667 -0.640073 -0.0657711 0.997798 0.00854752 164 172 161
-0.0615378 0.333333 -0.640226 -0.0990876 0.99479 0.0239833 164 173 162
-0.0533333 0.333333 -0.640981 -0.0772449 0.997011 -0.0015061 164 173 162
-0.0566667 0.336667 -0.640642 -0.102523 0.994442 0.0239749 164 173 161
-0.0433333 0.333333 -0.64178 -0.0831382 0.996533 0.00314002 164 173 162
-0.0466667 0.336667 -0.641507 -0.0785226 0.996911 -0.00150595 164 173 162
-0.0333333 0.333333 -0.642636 -0.0771225 0.996903 -0.015356 162 171 160
-0.0366667 0.336667 -0.642367 -0.0954781 0.995427 0.00313653 163 172 161
-0.0233333 0.333333 -0.643508 -0.0945785 0.99547 -0.00967582 162 171 160
-0.0266667 0.336667 -0.643243 -0.0889602 0.995917 -0.0153409 161 170 159
-0.0133333 0.333333 -0.644311 -0.060408 0.99758 -0.0344242 164 173 162
-0.0166667 0.336667 -0.644142 -0.0850293 0.996331 -0.00968419 163 172 161
-0.00333333 0.333333 -0.645013 -0.0808757 0.996478 -0.022131 163 172 161
-0.00666667 0.336667 -0.644857 -0.0686595 0.997047 -0.0344058 164 174 162
-0.0707395 0.348915 -0.640066 -0.0892626 0.994147 -0.0608538 165 173 161
-0.0677712 0.345582 -0.640066 -0.061524 0.996241 -0.0609819 164 173 161
-0.0644379 0.343333 -0.640139 -0.0656398 0.995807 -0.0637252 164 172 160
-0.0633333 0.346667 -0.640381 -0.0523741 0.997352 -0.0504565 164 173 161
-0.0533333 0.343333 -0.641029 -0.102483 0.994056 -0.0367371 163 172 161
-0.0566667 0.346667 -0.640854 -0.0889935 0.99476 -0.0503254 163 173 161
-0.0433333 0.343333 -0.641868 -0.0784923 0.996527 -0.0277962 163 172 161
-0.0466667 0.346667 -0.641728 -0.0694862 0.996902 -0.0368423 163 172 161
-0.0333333 0.343333 -0.642855 -0.0953435 0.994024 -0.0531624 164 173 162
-0.0366667 0.346667 -0.642628 -0.120572 0.992319 -0.0276788 164 173 162
-0.0233333 0.343333 -0.643688 -0.0889339 0.995622 -0.0287584 162 171 160
-0.0266667 0.346667 -0.643569 -0.0645008 0.996494 -0.0532945 163 173 161
-0.0133333 0.343333 -0.644483 -0.0850309 0.99635 -0.00747992 163 173 161
-0.0166667 0.346667 -0.644295 -0.0638079 0.997546 -0.028814 163 172 161
-0.00333333 0.343333 -0.64535 -0.0686327 0.996657 -0.0443155 163 173 161
-0.00666667 0.346667 -0.645146 -0.105229 0.99442 -0.00746543 163 173 161
-0.0713658 0.356667 -0.640021 -0.0340894 0.999418 0.00115809 146 157 144
-0.0707395 0.353333 -0.640088 -0.0894203 0.995903 0.0134563 155 165 153
-0.0633333 0.353333 -0.640601 -0.0524345 0.998504 -0.0155331 156 165 153
-0.0666667 0.356667 -0.640381 -0.0813036 0.996598 0.0134657 147 157 145
-0.0533333 0.353333 -0.641306 -0.0891055 0.996012 0.0044606 156 166 154
-0.0566667 0.356667 -0.641059 -0.0692524 0.997478 -0.0155171 148 158 146
-0.0433333 0.353333 -0.6422 -0.0694915 0.996978 -0.0347229 158 167 156
-0.0466667 0.356667 -0.641952 -0.108366 0.994101 0.00445204 150 160 148
-0.0333333 0.353333 -0.643092 -0.120612 0.992648 0.0101634 159 168 156
-0.0366667 0.356667 -0.642803 -0.0761707 0.996491 -0.034706 153 162 150
-0.0233333 0.353333 -0.644002 -0.0645882 0.997844 -0.0116935 160 170 158
-0.0266667 0.356667 -0.643752 -0.0863568 0.996212 0.0101999 155 165 153
-0.0133333 0.353333 -0.644705 -0.0638059 0.997515 -0.0298862 160 171 158
-0.0166667 0.356667 -0.64453 -0.0819248 0.99657 -0.0116786 156 167 154
-0.00333333 0.353333 -0.645522 -0.105232 0.994447 0.000546266 159 169 157
-0.00666667 0.356667 -0.645269 -0.0750636 0.996732 -0.0298627 157 167 155
-0.0717409 0.366667 -0.64013 -0.115967 0.993108 -0.0169894 151 162 149
-0.0706263 0.363333 -0.640152 -0.0340713 0.998887 -0.0326022 144 155 143
-0.0633333 0.363333 -0.640618 -0.0813106 0.996684 -0.00312528 144 154 142
-0.0666667 0.366667 -0.640455 -0.0519802 0.998117 -0.0325771 150 160 149
-0.0533333 0.363333 -0.641355 -0.0692603 0.997592 -0.00358479 145 154 143
-0.0566667 0.366667 -0.641134 -0.0697149 0.997562 -0.00312804 149 159 148
-0.0433333 0.363333 -0.642307 -0.108367 0.99411 -0.00167616 151 159 148
-0.0466667 0.366667 -0.641955 -0.106492 0.994307 -0.00357299 153 162 151
-0.0333333 0.363333 -0.6432 -0.0762142 0.99706 -0.00785039 153 162 150
-0.0366667 0.366667 -0.642951 -0.0823456 0.996602 -0.00168037 158 167 155
-0.0233333 0.363333 -0.644078 -0.0863415 0.996036 -0.0213916 156 166 153
-0.0266667 0.366667 -0.643815 -0.0997848 0.994978 -0.007834 160 170 157
-0.0133333 0.363333 -0.644952 -0.0818871 0.996112 -0.0324813 158 168 156
-0.0166667 0.366667 -0.64475 -0.0929128 0.995445 -0.0213789 162 173 160
-0.00333333 0.363333 -0.645732 -0.0750545 0.99661 -0.0336837 157 168 156
-0.00666667 0.366667 -0.64559 -0.0762368 0.99656 -0.0324959 162 173 160
-0.0725908 0.376667 -0.640152 -0.102391 0.994682 -0.0111047 160 169 158
-0.0711146 0.373333 -0.640282 -0.115981 0.99323 -0.00649413 159 168 157
-0.0633333 0.373333 -0.640736 -0.0520078 0.998647 0.000556192 154 163 152
-0.0666667 0.376667 -0.640584 -0.0449365 0.998968 -0.00653165 156 165 154
-0.0533333 0.373333 -0.64154 -0.0696327 0.996387 -0.0486289 157 166 154
