ply
format ascii 1.0
comment Generated by the ZED SDK.
element vertex 681
property float32 x
property float32 y
property float32 z
property float32 nx
property float32 ny
property float32 nz
property uchar red
property uchar green
property uchar blue
end_header
-0.283333 0.433333 -0.630501 -0.0808076 0.996577 0.0174419 200 204 203
-0.286667 0.436667 -0.630434 -0.00274912 0.998151 -0.0607167 200 205 203
-0.273333 0.433333 -0.631256 -0.0746481 0.996971 0.0218224 202 206 204
-0.276667 0.436667 -0.630948 -0.0703028 0.997373 0.0174559 199 204 202
-0.263333 0.433333 -0.631846 -0.053394 0.998212 0.026876 203 207 205
-0.266667 0.436667 -0.631594 -0.0483859 0.998589 0.0218579 201 205 203
-0.253333 0.433333 -0.632193 -0.0150775 0.999866 0.00635062 197 202 199
-0.256667 0.436667 -0.632053 -0.0356166 0.999003 0.0268973 197 201 199
-0.243333 0.433333 -0.632181 0.00929582 0.999935 0.00655323 192 196 194
-0.246667 0.436667 -0.632191 0.00949798 0.999935 0.00635106 191 196 194
-0.313713 0.449685 -0.629728 -0.0912014 0.98975 -0.109894 195 201 198
-0.313333 0.446352 -0.629341 -0.0925922 0.987645 -0.126425 198 203 201
-0.316667 0.443333 -0.628874 -0.0244371 0.997981 -0.0586239 199 205 202
-0.306881 0.443018 -0.629614 -0.121954 0.984503 -0.126023 201 205 203
-0.31038 0.449685 -0.630034 -0.0884559 0.990361 -0.106585 197 202 199
-0.306881 0.446352 -0.630034 -0.102999 0.98897 -0.106436 198 203 201
-0.303548 0.443333 -0.630057 -0.104656 0.988629 -0.107982 199 204 202
-0.303333 0.446667 -0.630159 -0.0206729 0.999497 -0.0240358 196 201 199
-0.293333 0.443333 -0.630636 -0.0557563 0.996739 -0.058338 196 201 199
-0.296667 0.446667 -0.63053 -0.0900266 0.995652 -0.0239433 192 198 196
-0.283333 0.443333 -0.630857 -0.00274871 0.998002 -0.0631175 197 203 201
-0.286667 0.446667 -0.631043 -0.00745621 0.998264 -0.0584273 193 199 197
-0.273333 0.443333 -0.631334 -0.0701767 0.995584 -0.0623456 198 202 201
-0.276667 0.446667 -0.63131 -0.069558 0.995589 -0.0629649 196 201 200
-0.263333 0.443333 -0.631842 -0.0483427 0.997696 -0.0475929 198 202 200
-0.266667 0.446667 -0.631889 -0.0334507 0.997486 -0.0624647 197 201 199
-0.253333 0.443333 -0.632343 -0.0355213 0.996328 -0.0778989 189 195 192
-0.256667 0.446667 -0.632383 -0.0659166 0.996692 -0.047545 191 197 195
-0.243333 0.443333 -0.632531 0.00943266 0.993059 -0.117242 189 194 192
-0.246667 0.446667 -0.632823 -0.0302701 0.996501 -0.0779124 187 193 190
-0.31038 0.455908 -0.629987 -0.112184 0.99355 0.0165458 196 201 199
-0.313713 0.453333 -0.629715 -0.0917478 0.995681 0.0142261 195 200 198
-0.316667 0.456667 -0.62939 -0.0934418 0.995497 0.0159344 197 202 200
-0.309761 0.459241 -0.629987 -0.052853 0.998464 0.0166277 196 201 199
-0.31038 0.452574 -0.630034 -0.088955 0.995949 0.0131199 197 202 199
-0.306428 0.459241 -0.630132 -0.0427198 0.998997 0.0134398 195 200 198
-0.306667 0.455908 -0.630166 -0.0426564 0.999003 0.0131601 195 200 198
-0.303333 0.453333 -0.630269 -0.0206781 0.999747 -0.00884023 194 198 197
-0.293333 0.453333 -0.63079 -0.0899936 0.995286 0.0361409 185 190 189
-0.296667 0.456667 -0.630518 -0.0452171 0.998938 -0.00883308 187 192 191
-0.283333 0.453333 -0.63142 -0.00746062 0.998854 -0.0472709 195 200 199
-0.286667 0.456667 -0.631274 -0.0906714 0.995225 0.0361387 190 195 194
-0.273333 0.453333 -0.631808 -0.0696868 0.997432 -0.0165057 196 201 199
-0.276667 0.456667 -0.631733 -0.0390158 0.998121 -0.0472362 199 204 202
-0.263333 0.453333 -0.632338 -0.0334913 0.998696 -0.0385239 198 202 200
-0.266667 0.456667 -0.632282 -0.0554679 0.998324 -0.0165204 199 204 201
-0.253333 0.453333 -0.632898 -0.0659372 0.997003 -0.0404705 191 197 195
-0.256667 0.456667 -0.632806 -0.0679453 0.996948 -0.0384565 198 203 201
-0.243333 0.453333 -0.63341 -0.0302936 0.997273 -0.0672942 192 198 195
-0.246667 0.456667 -0.633444 -0.0571219 0.997546 -0.0404926 193 200 197
-0.313819 0.467227 -0.629655 -0.120355 0.992507 -0.0210743 197 202 201
-0.313333 0.463894 -0.629642 -0.121428 0.992348 -0.022384 196 201 200
-0.316667 0.463333 -0.629317 -0.093452 0.995606 0.00591718 198 203 202
-0.309761 0.46056 -0.629987 -0.0528469 0.998349 -0.0225193 196 201 199
-0.310486 0.467227 -0.630052 -0.106044 0.994188 -0.0185683 197 202 201
-0.309761 0.463894 -0.630052 -0.0437801 0.998867 -0.0186557 197 202 200
-0.306428 0.463333 -0.630184 -0.0427163 0.998914 -0.0185803 196 200 199
-0.303333 0.466667 -0.630339 -0.0310359 0.999495 -0.00688586 194 198 197
-0.293333 0.463333 -0.630792 -0.0452012 0.998586 -0.0279869 184 188 187
-0.296667 0.466667 -0.630664 -0.066255 0.997779 -0.00687404 188 192 190
-0.283333 0.463333 -0.631181 -0.0904247 0.992518 0.0820497 197 201 200
-0.286667 0.466667 -0.630971 0.019577 0.999416 -0.0280102 189 193 191
-0.273333 0.463333 -0.632094 -0.0390502 0.999003 -0.0216459 201 206 203
-0.276667 0.466667 -0.631688 -0.141499 0.986573 0.0815583 204 208 206
-0.263333 0.463333 -0.632551 -0.0554735 0.998423 -0.00856192 201 206 203
-0.266667 0.466667 -0.632438 -0.0424208 0.998865 -0.0216429 200 206 202
-0.253333 0.463333 -0.633084 -0.0679772 0.997416 0.023259 200 206 203
-0.256667 0.466667 -0.632885 -0.0362336 0.999307 -0.00856949 202 207 204
-0.243333 0.463333 -0.633791 -0.0571677 0.998347 -0.00600202 200 205 203
-0.246667 0.466667 -0.633522 -0.0862475 0.996003 0.023226 200 205 203
-0.310486 0.475264 -0.629958 -0.119254 0.992411 0.0299967 195 201 199
-0.313819 0.473333 -0.629612 -0.120327 0.992276 0.0301513 195 201 200
-0.316667 0.476667 -0.629431 -0.041593 0.997928 -0.0490962 195 201 200
-0.308615 0.478597 -0.629958 -0.0305856 0.999076 0.0301982 193 199 197
-0.310486 0.47193 -0.630052 -0.106024 0.994006 0.0266689 197 202 201
-0.305281 0.478597 -0.630052 -0.0266381 0.999299 0.0263007 192 197 196
-0.306667 0.475264 -0.630104 -0.0268524 0.99928 0.0268104 195 199 198
-0.303333 0.473333 -0.630259 -0.0310218 0.999039 0.0309799 193 197 196
-0.293333 0.473333 -0.630746 -0.0661786 0.996629 0.0484848 184 187 187
-0.296667 0.476667 -0.630422 -0.0486821 0.998334 0.030958 187 190 190
-0.283333 0.473333 -0.631288 0.0195116 0.996077 -0.0863072 196 200 197
-0.286667 0.476667 -0.631191 -0.114807 0.992215 0.0482701 187 191 190
-0.273333 0.473333 -0.631836 -0.141954 0.989742 0.0161519 201 206 203
-0.276667 0.476667 -0.631647 -0.0402749 0.995459 -0.0862536 201 206 203
-0.263333 0.473333 -0.632658 -0.0424307 0.999097 -0.00203902 201 207 203
-0.266667 0.476667 -0.632462 -0.0607089 0.998023 0.016287 199 204 201
-0.253333 0.473333 -0.63301 -0.0362339 0.999316 0.00736496 202 207 204
-0.256667 0.476667 -0.632896 -0.0268381 0.999638 -0.00204012 202 207 203
-0.243333 0.473333 -0.633739 -0.0862706 0.99627 -0.00184703 200 205 202
-0.246667 0.476667 -0.633426 -0.0953782 0.995414 0.0073362 200 205 202
0.20065 1.59963 -0.969276 -0.454161 0.407308 0.792362 103 88 70
0.316667 0.0833333 -0.644795 -0.145683 0.988762 -0.0335617 175 178 165
0.313333 0.0866667 -0.644478 -0.127601 0.990464 -0.0519519 175 178 164
0.316667 0.0933333 -0.645251 -0.127615 0.99057 -0.0498565 176 179 166
0.313333 0.0966667 -0.645091 -0.0973668 0.991999 -0.0803607 177 180 166
0.316667 0.103333 -0.645916 -0.0974576 0.992923 -0.0678605 177 180 167
0.313333 0.106667 -0.645392 -0.219747 0.973855 0.0576042 178 183 166
0.316667 0.113333 -0.646039 -0.220033 0.975122 -0.0268941 179 183 167
0.313333 0.116667 -0.646542 0.114589 0.929708 -0.350017 180 186 166
0.316667 0.123333 -0.647453 0.122303 0.992291 -0.0200393 180 184 167
0.313333 0.126667 -0.647136 -0.112026 0.970811 0.212076 178 182 165
0.316667 0.133333 -0.646779 -0.114633 0.9934 0.003979 176 178 165
0.313333 0.136667 -0.646445 -0.0957084 0.995294 -0.0151566 176 179 165
0.306667 0.143333 -0.645768 -0.103204 0.994494 0.0181642 177 181 167
0.303333 0.146667 -0.645511 -0.0588447 0.997916 -0.0264873 174 178 164
0.316667 0.143333 -0.64681 -0.0957192 0.995407 0.00195175 176 180 166
0.313333 0.146667 -0.646428 -0.111742 0.993572 0.0181474 177 180 167
0.296667 0.153333 -0.645158 -0.0814291 0.996645 -0.00821971 166 169 155
0.293333 0.156667 -0.644857 -0.0981078 0.995139 0.00859449 169 173 158
0.306667 0.153333 -0.646042 -0.0587061 0.995566 -0.0735023 173 176 163
0.303333 0.156667 -0.645873 -0.123591 0.992299 -0.00818387 172 175 162
0.316667 0.153333 -0.646763 -0.111758 0.993716 -0.00628502 176 179 165
0.313333 0.156667 -0.646635 -0.044793 0.996285 -0.0735553 174 177 164
-0.153333 0.323333 -0.634197 -0.0648852 0.997026 -0.0415745 203 207 202
-0.156667 0.326667 -0.633958 -0.112697 0.993608 0.00660272 203 207 202
-0.143333 0.323333 -0.634679 -0.0441989 0.99849 -0.0326083 201 204 199
-0.146667 0.326667 -0.63467 -0.0351726 0.998514 -0.0416365 200 204 199
-0.133333 0.323333 -0.635161 -0.0406834 0.997841 -0.0515623 198 202 196
-0.136667 0.326667 -0.635134 -0.0596495 0.997687 -0.0325821 198 202 196
-0.123333 0.323333 -0.635613 -0.0711687 0.997457 -0.00371368 198 201 196
-0.126667 0.326667 -0.635547 -0.0233618 0.998395 -0.051591 196 200 195
-0.113333 0.323333 -0.635995 -0.00446755 0.999267 -0.0380313 198 201 196
-0.116667 0.326667 -0.635993 -0.0387775 0.999241 -0.00372032 197 199 195
-0.103333 0.323333 -0.636312 -0.0558283 0.998298 -0.0168551 197 200 195
-0.106667 0.326667 -0.636253 -0.034702 0.998675 -0.0380088 197 199 195
-0.0933333 0.323333 -0.636659 -0.0162704 0.999342 -0.0324036 198 200 195
-0.0966667 0.326667 -0.636661 -0.0318016 0.999352 -0.0168729 196 199 194
-0.0833333 0.323333 -0.637164 -0.0751318 0.997032 -0.0168337 196 198 193
-0.0866667 0.326667 -0.637021 -0.0596765 0.997693 -0.0323501 196 199 194
-0.153333 0.333333 -0.634556 -0.112406 0.991038 -0.0721662 195 198 193
-0.156667 0.336667 -0.634348 -0.133803 0.989719 -0.0505235 190 193 189
-0.143333 0.333333 -0.635185 -0.0350974 0.99638 -0.0774241 193 196 191
-0.146667 0.336667 -0.635311 -0.0399736 0.996562 -0.0725684 187 190 185
-0.133333 0.333333 -0.635628 -0.0595895 0.996684 -0.0554148 190 194 188
-0.136667 0.336667 -0.635688 -0.0375418 0.996292 -0.0774172 185 188 183
-0.123333 0.333333 -0.636087 -0.0233054 0.995987 -0.0864133 188 190 186
-0.126667 0.336667 -0.636194 -0.0543968 0.99698 -0.0554313 181 184 179
-0.113333 0.333333 -0.636331 -0.0387106 0.997519 -0.0587947 188 190 185
-0.116667 0.336667 -0.636491 -0.0109446 0.996198 -0.0864316 180 182 177
-0.103333 0.333333 -0.636825 -0.0345584 0.994541 -0.0984586 189 191 186
-0.106667 0.336667 -0.636906 -0.0744693 0.995496 -0.0586754 181 184 178
-0.0933333 0.333333 -0.637176 -0.0316299 0.993956 -0.10512 190 193 189
-0.0966667 0.336667 -0.6374 -0.0383659 0.994403 -0.0984449 183 186 181
-0.0833333 0.333333 -0.637619 -0.059482 0.994442 -0.0868748 189 191 187
-0.0866667 0.336667 -0.637773 -0.0411516 0.993612 -0.105083 184 187 182
-0.153333 0.343333 -0.634837 -0.13387 0.990216 0.0393904 189 192 188
-0.156667 0.346667 -0.634434 -0.0808155 0.996627 -0.0142759 197 201 197
-0.143333 0.343333 -0.635599 -0.0400652 0.998845 0.0265387 186 189 184
-0.146667 0.346667 -0.635332 -0.0532042 0.997795 0.0396919 193 196 192
-0.133333 0.343333 -0.635931 -0.0376213 0.998399 0.0422335 184 187 182
-0.136667 0.346667 -0.635717 -0.0219367 0.999407 0.0265536 191 194 189
-0.123333 0.343333 -0.636272 -0.0542769 0.994782 0.0863884 178 181 176
-0.126667 0.346667 -0.635949 -0.0100118 0.999057 0.0422613 186 189 184
-0.113333 0.343333 -0.63664 -0.0109703 0.998545 0.0528024 178 181 175
-0.116667 0.346667 -0.636314 -0.0447352 0.995253 0.0864294 183 186 181
-0.103333 0.343333 -0.637213 -0.0745334 0.996353 0.041535 184 187 181
-0.106667 0.346667 -0.636787 -0.0855636 0.994943 0.0526119 189 192 186
-0.0933333 0.343333 -0.637707 -0.0385136 0.998231 0.0452956 186 189 183
-0.0966667 0.346667 -0.63744 -0.0348416 0.998526 0.0416256 194 197 192
-0.0833333 0.343333 -0.638154 -0.0413587 0.998611 0.0326313 184 186 182
-0.0866667 0.346667 -0.637865 -0.0539808 0.997516 0.0452631 193 196 191
-0.153333 0.353333 -0.634909 -0.0807349 0.995633 -0.0468678 206 210 205
-0.156667 0.356667 -0.634739 -0.0975412 0.994781 -0.0299523 210 213 209
-0.143333 0.353333 -0.635441 -0.0532366 0.998401 -0.0190354 202 206 201
-0.146667 0.356667 -0.63542 -0.0252783 0.998575 -0.0470063 207 210 205
-0.133333 0.353333 -0.635771 -0.0219397 0.999539 -0.0209635 198 201 196
-0.136667 0.356667 -0.635762 -0.023846 0.999534 -0.019057 202 205 201
-0.123333 0.353333 -0.635995 -0.0100101 0.998888 -0.0460684 189 192 187
-0.126667 0.356667 -0.636032 -0.0351382 0.999163 -0.0209556 194 197 192
-0.113333 0.353333 -0.636173 -0.0449032 0.998991 0.000621168 192 196 190
-0.116667 0.356667 -0.636176 0.001791 0.998937 -0.0460706 190 193 188
-0.103333 0.353333 -0.636848 -0.0856729 0.996214 0.014783 200 203 197
-0.106667 0.356667 -0.63656 -0.0715969 0.997433 0.0006202 198 202 195
-0.0933333 0.353333 -0.637497 -0.0348619 0.999107 -0.0238854 202 205 200
-0.0966667 0.356667 -0.637331 -0.073432 0.99719 0.0147975 203 206 200
-0.0833333 0.353333 -0.637882 -0.0540359 0.998532 0.00362626 201 203 199
-0.0866667 0.356667 -0.637781 -0.02656 0.999362 -0.0238914 202 204 199
-0.153333 0.363333 -0.635194 -0.0975815 0.995192 -0.00840893 210 213 209
-0.156667 0.366667 -0.634944 -0.0832717 0.996265 -0.0228331 207 211 207
-0.143333 0.363333 -0.635679 -0.0253059 0.999666 -0.00520914 207 211 206
-0.146667 0.366667 -0.635623 -0.0220695 0.999721 -0.0084472 208 211 206
-0.133333 0.363333 -0.635924 -0.02385 0.9997 -0.00564406 202 205 201
-0.136667 0.366667 -0.635862 -0.0242845 0.999691 -0.00520927 203 206 202
-0.123333 0.363333 -0.636134 -0.0351345 0.999056 0.0255382 190 193 188
-0.126667 0.366667 -0.636035 -0.00395956 0.999976 -0.00564562 195 198 193
-0.113333 0.363333 -0.63641 0.00179231 0.999666 -0.0257711 193 196 191
-0.116667 0.366667 -0.636331 -0.0494723 0.998449 0.0255226 188 191 186
-0.103333 0.363333 -0.636966 -0.0715052 0.996155 -0.0506088 202 206 199
-0.106667 0.366667 -0.636813 -0.0963234 0.99502 -0.0256513 199 202 196
-0.0933333 0.363333 -0.637637 -0.0734001 0.996757 -0.0329776 201 204 199
-0.0966667 0.366667 -0.637561 -0.0557607 0.997158 -0.0506598 202 205 200
-0.0833333 0.363333 -0.638102 -0.0265398 0.998599 -0.0457846 200 203 199
-0.0866667 0.366667 -0.638124 -0.0392891 0.998681 -0.0330412 200 202 198
-0.153333 0.373333 -0.635425 -0.083234 0.995815 -0.037748 206 210 205
-0.156667 0.376667 -0.635274 -0.0829048 0.99583 -0.0380791 206 209 205
-0.143333 0.373333 -0.635788 -0.0220663 0.999576 -0.0190158 204 208 203
-0.146667 0.376667 -0.635841 -0.00319059 0.999277 -0.0378792 206 209 204
-0.133333 0.373333 -0.635971 -0.0242847 0.9997 -0.00333304 199 202 198
-0.136667 0.376667 -0.635953 -0.00860027 0.999782 -0.0190198 200 203 199
-0.123333 0.373333 -0.636135 -0.00395881 0.999786 -0.0202975 191 194 189
-0.126667 0.376667 -0.636133 -0.0209227 0.999776 -0.0033333 195 198 193
-0.113333 0.373333 -0.636446 -0.0494857 0.99872 -0.0104656 192 194 189
-0.116667 0.376667 -0.636348 -0.0396868 0.999006 -0.0202816 190 193 188
-0.103333 0.373333 -0.637245 -0.0963527 0.995322 -0.00714567 199 203 197
-0.106667 0.376667 -0.636958 -0.0930947 0.995603 -0.0104329 197 199 194
-0.0933333 0.373333 -0.638011 -0.0558103 0.998044 -0.0281773 200 203 198
-0.0966667 0.376667 -0.637848 -0.076744 0.997025 -0.0071579 200 203 198
-0.0833333 0.373333 -0.638531 -0.0392621 0.997996 -0.0496325 199 201 197
-0.0866667 0.376667 -0.638494 -0.0607042 0.997758 -0.0281693 198 201 196
-0.153333 0.383333 -0.635656 -0.082963 0.996529 0.00683882 206 209 205
-0.156667 0.386667 -0.635506 -0.0381714 0.998544 -0.0381067 205 208 203
-0.143333 0.383333 -0.636123 -0.00318987 0.99905 -0.0434501 204 207 202
-0.146667 0.386667 -0.636089 -0.053469 0.998546 0.00685266 205 208 203
-0.133333 0.383333 -0.636052 -0.00860181 0.999961 -0.0018348 197 199 195
-0.136667 0.386667 -0.636168 0.0330051 0.998511 -0.0434266 198 202 197
-0.123333 0.383333 -0.636244 -0.020922 0.99974 -0.00909187 194 197 192
-0.126667 0.386667 -0.63618 -0.0281756 0.999601 -0.00183414 194 197 193
-0.113333 0.383333 -0.636615 -0.0396871 0.999013 -0.0199464 194 197 192
-0.116667 0.386667 -0.636513 -0.0505314 0.998681 -0.00908224 194 197 192
-0.103333 0.383333 -0.637358 -0.0930879 0.99553 -0.0159881 196 198 193
-0.106667 0.386667 -0.637113 -0.0892245 0.995813 -0.0198825 195 197 192
-0.0933333 0.383333 -0.638244 -0.0767008 0.996465 -0.0342831 197 199 193
-0.0966667 0.386667 -0.638041 -0.0948756 0.995361 -0.0159854 194 197 192
-0.0833333 0.383333 -0.63881 -0.0607273 0.998138 -0.00573804 195 198 193
-0.0866667 0.386667 -0.638722 -0.0321489 0.998892 -0.0343666 193 196 190
-0.153333 0.393333 -0.635803 -0.038196 0.999187 -0.0129061 202 205 200
-0.156667 0.396667 -0.635645 -0.0603577 0.998133 0.00930952 198 201 196
-0.143333 0.393333 -0.636107 -0.0534252 0.997727 0.0410594 202 205 200
-0.146667 0.396667 -0.635972 0.00052257 0.999916 -0.0129155 201 204 199
-0.133333 0.393333 -0.636351 0.0330038 0.99847 -0.0443618 195 198 193
-0.136667 0.396667 -0.636324 -0.0524118 0.997781 0.0410616 197 201 196
-0.123333 0.393333 -0.636499 -0.0281153 0.997462 -0.065412 195 198 194
-0.126667 0.396667 -0.636553 -0.0492271 0.997803 -0.0443322 194 196 192
-0.113333 0.393333 -0.636928 -0.0504274 0.996625 -0.0647792 197 200 195
-0.116667 0.396667 -0.636978 -0.0498491 0.996616 -0.0653565 198 201 196
-0.103333 0.393333 -0.637464 -0.0892414 0.996002 0.0040844 194 196 191
-0.106667 0.396667 -0.637382 -0.0204527 0.997686 -0.0648482 196 199 194
-0.0933333 0.393333 -0.638423 -0.0948872 0.995482 -0.00339493 190 192 188
-0.0966667 0.396667 -0.638092 -0.102289 0.994746 0.00407926 190 193 189
-0.0833333 0.393333 -0.63883 -0.0321491 0.998896 0.0342372 189 192 188
-0.0866667 0.396667 -0.638734 0.00550068 0.999979 -0.00341027 188 190 187
0.406667 0.643333 -0.661012 -0.0832531 0.996361 -0.0182591 194 201 211
0.403333 0.646667 -0.660798 -0.0819524 0.996444 -0.0195682 188 197 204
0.416667 0.643333 -0.661589 -0.0549172 0.998489 0.00199588 193 201 211
0.413333 0.646667 -0.661467 -0.034649 0.999232 -0.0183117 195 203 213
0.426667 0.643333 -0.662318 -0.0745545 0.997144 -0.0120428 190 198 208
0.423333 0.646667 -0.662062 -0.0884955 0.996075 0.00199105 193 201 211
0.436667 0.643333 -0.662853 -0.0421645 0.999021 -0.013407 186 192 203
0.433333 0.646667 -0.662752 -0.0435042 0.99898 -0.012065 192 199 210
0.446667 0.643333 -0.662803 -0.0317904 0.993759 0.106918 161 167 178
0.443333 0.646667 -0.662741 0.0886612 0.995972 -0.0133661 177 183 193
0.456667 0.643333 -0.663233 -0.0673214 0.987129 0.145066 162 169 179
0.453333 0.646667 -0.662647 -0.0286543 0.993854 0.106928 156 162 171
0.466667 0.643333 -0.664345 -0.0564733 0.99839 -0.00530151 186 195 208
0.463333 0.646667 -0.663667 -0.202339 0.968909 0.142388 175 184 195
0.406667 0.656743 -0.65992 -0.0657718 0.991092 0.115803 187 196 200
0.403333 0.657425 -0.659517 -0.095608 0.983405 0.15419 187 197 201
0.403333 0.650759 -0.660667 -0.0793635 0.964966 0.250083 183 193 199
0.406667 0.65341 -0.660471 -0.0987846 0.979791 0.173928 188 197 203
0.415628 0.659318 -0.660066 -0.0621764 0.97588 0.209266 199 208 212
0.413333 0.655985 -0.660537 -0.0552134 0.983105 0.174516 196 205 211
0.416667 0.653333 -0.661123 -0.034241 0.987466 0.154073 198 207 214
0.428101 0.656413 -0.660882 0.0367607 0.960667 0.275259 202 212 219
0.424768 0.656667 -0.660949 0.0442624 0.959226 0.279151 202 211 218
0.423333 0.653333 -0.661535 -0.0874459 0.98426 0.153573 199 207 215
0.456667 0.653333 -0.661967 -0.0285956 0.99182 0.124401 163 170 178
0.453333 0.656667 -0.661867 0.0951398 0.995463 0.0010177 178 185 193
0.466667 0.653333 -0.662858 -0.195899 0.938069 0.285746 182 190 199
0.463333 0.656667 -0.661744 -0.0294046 0.991796 0.124398 175 183 190
0.406667 0.661237 -0.659517 -0.0965669 0.993268 -0.0639751 191 200 204
0.403333 0.664179 -0.659596 -0.0693995 0.988331 -0.135592 194 202 207
0.403333 0.667513 -0.660057 -0.0730873 0.98705 -0.142797 196 205 209
0.406667 0.667903 -0.660219 -0.0317942 0.996493 -0.0774036 194 202 206
0.412294 0.66457 -0.660163 -0.0417054 0.996129 -0.0773754 194 203 207
0.415628 0.663333 -0.660229 -0.0633138 0.993732 -0.0921313 199 208 212
0.416667 0.666667 -0.660257 0.0405371 0.999111 0.0115635 201 210 215
0.466667 0.663333 -0.661565 -0.0296083 0.998666 -0.0422943 188 197 204
0.463333 0.666667 -0.661706 -0.000235905 0.997435 -0.071578 182 191 198
0.400793 0.678784 -0.659966 -0.0434761 0.998652 0.0283526 202 209 215
0.404126 0.678784 -0.66014 -0.0550451 0.997838 0.0358973 198 206 211
0.403333 0.675451 -0.660197 -0.0516881 0.998308 0.0266375 198 206 211
0.406667 0.673333 -0.66036 -0.0318892 0.999468 0.00680943 194 203 207
0.416667 0.673333 -0.660797 0.0399428 0.984465 -0.170977 200 209 215
0.413333 0.676667 -0.66091 -0.138563 0.990331 0.00674717 195 204 209
0.466667 0.673333 -0.661768 -0.000236176 0.998582 0.053231 192 202 210
0.463333 0.676667 -0.661865 0.0821745 0.996187 -0.0293068 184 194 202
0.476667 0.673333 -0.662172 -0.0269194 0.999542 -0.0138258 199 209 217
0.473333 0.676667 -0.661905 -0.0935253 0.994205 0.0529977 199 210 218
0.400793 0.683333 -0.659869 -0.043486 0.99888 0.0186406 203 210 217
0.401663 0.686667 -0.659903 -0.110495 0.993873 0.0025598 202 210 217
0.404996 0.686667 -0.660321 -0.129041 0.991635 0.00298945 196 205 211
0.407459 0.683333 -0.660461 -0.0550003 0.997027 -0.053962 193 202 207
0.416667 0.683333 -0.66153 -0.138374 0.988986 -0.0525233 197 206 212
0.413333 0.686667 -0.661244 -0.137383 0.98907 -0.0535314 192 202 207
0.426667 0.683333 -0.661454 0.0538082 0.998549 0.00204171 206 217 224
0.423333 0.686667 -0.66181 0.108246 0.992725 -0.0527219 203 213 219
0.466667 0.683333 -0.662208 0.0812347 0.984795 -0.153559 188 198 206
0.463333 0.686667 -0.662681 -0.0142101 0.998151 -0.0590946 182 191 200
0.407537 0.696398 -0.659978 -0.100598 0.991637 0.0808502 188 199 205
0.404203 0.693333 -0.659881 -0.110068 0.990035 0.0878386 196 205 212
0.403333 0.696667 -0.659704 -0.046635 0.998619 0.0242127 199 209 216
0.410119 0.699732 -0.659978 -0.180679 0.980289 0.079925 182 193 199
0.407537 0.693065 -0.660321 -0.128353 0.986349 0.103157 190 200 206
0.413452 0.699732 -0.660658 -0.199799 0.975843 0.0883828 188 199 205
0.413333 0.696398 -0.660979 -0.200594 0.97436 0.101903 190 200 206
0.416667 0.693333 -0.661762 -0.137485 0.989804 0.0372294 195 204 211
0.426667 0.693333 -0.661966 0.107838 0.988984 -0.101402 203 214 221
0.423333 0.696667 -0.662204 -0.0310681 0.998811 0.0375682 200 211 218
0.466667 0.693333 -0.662935 -0.014235 0.999895 -0.00277681 188 197 206
0.463333 0.696667 -0.663138 0.0578904 0.995515 -0.0748277 184 194 203
0.406667 0.701391 -0.659801 -0.0466429 0.998788 -0.0156996 192 202 209
0.403333 0.703156 -0.659823 -0.0112047 0.994914 -0.100104 202 212 219
0.410119 0.701391 -0.659978 -0.181237 0.983318 -0.0154565 183 194 200
0.403333 0.706489 -0.660164 -0.011621 0.994528 -0.103823 203 213 220
0.406667 0.708058 -0.660202 0.0377848 0.999098 -0.0194036 194 205 211
0.410119 0.704725 -0.660038 -0.222002 0.974862 -0.018933 184 195 201
0.413452 0.703333 -0.660696 -0.200551 0.979514 -0.018222 190 200 206
0.416667 0.706667 -0.661092 -0.106617 0.991244 0.0778947 195 205 212
0.426667 0.703333 -0.662403 -0.0310222 0.997335 -0.0660315 203 214 221
0.423333 0.706667 -0.662037 -0.17272 0.981944 0.0771639 201 212 219
0.456667 0.703333 -0.663107 -0.174894 0.983976 -0.0346905 194 204 214
0.453333 0.706667 -0.662935 -0.0860336 0.988481 -0.12451 204 214 224
0.466667 0.703333 -0.663558 0.0577123 0.992452 -0.108209 188 198 207
0.463333 0.706667 -0.663869 -0.0156134 0.999257 -0.0352292 187 197 207
0.406667 0.713333 -0.660504 0.0376732 0.996147 -0.0791996 202 213 220
0.403333 0.716667 -0.66075 -0.00580976 0.99934 -0.0358497 211 221 229
0.416667 0.713333 -0.661064 -0.106684 0.991859 -0.0695357 197 207 215
0.413333 0.716667 -0.66097 -0.0973859 0.992116 -0.0788791 199 210 217
0.426667 0.713333 -0.662216 -0.173076 0.98397 0.0429781 202 213 221
0.423333 0.716667 -0.661863 -0.0618402 0.995642 -0.069801 201 213 220
0.466667 0.713333 -0.663996 -0.0156218 0.999796 0.01283 193 203 212
0.463333 0.716667 -0.663967 0.00404345 0.999969 -0.00683572 194 204 213
-0.753333 0.643333 -0.601911 -0.0425203 0.999055 -0.00905515 24 24 24
-0.756667 0.646667 -0.601783 -0.0475646 0.99886 -0.00400087 25 25 24
-0.743333 0.643333 -0.602584 -0.058509 0.996996 -0.0507466 23 23 22
-0.746667 0.646667 -0.602419 -0.100013 0.994945 -0.00901791 24 24 23
-0.733333 0.643333 -0.603213 -0.093162 0.995632 0.00609585 25 25 23
-0.736667 0.646667 -0.603071 -0.0364771 0.998042 -0.0507999 24 24 22
-0.723333 0.643333 -0.603884 -0.0307913 0.998733 -0.0398055 26 26 24
-0.726667 0.646667 -0.603761 -0.0765819 0.997045 0.00610449 26 26 24
-0.753333 0.653333 -0.602104 -0.0475174 0.997869 -0.0447044 24 24 24
-0.756667 0.656667 -0.601969 -0.0850878 0.996349 -0.00699342 24 24 24
-0.743333 0.653333 -0.602784 -0.100017 0.994986 -8.35025e-05 24 24 22
-0.746667 0.656667 -0.602598 -0.0556629 0.997449 -0.0446855 24 24 23
-0.733333 0.653333 -0.603349 -0.0365239 0.999324 0.00416283 25 25 23
-0.736667 0.656667 -0.603227 -0.0322822 0.999479 -8.38796e-05 24 24 22
-0.723333 0.653333 -0.603985 -0.0765829 0.997057 0.00354483 26 26 24
-0.726667 0.656667 -0.603715 -0.0771876 0.997008 0.00415319 26 26 24
0.649282 1.6098 -0.979456 0.248107 0.327469 0.911706 35 32 32
0.652986 1.6098 -0.979456 -0.0614762 0.337399 0.939352 37 35 34
0.646667 1.61618 -0.963333 0.16539 -0.286048 0.943834 54 51 45
0.643333 1.61598 -0.966667 -0.332455 0.215065 0.91827 53 49 44
0.645949 1.61067 -0.979456 0.235423 0.310728 0.920882 37 33 32
0.646667 1.61321 -0.976123 0.249997 0.651806 0.715996 38 34 33
0.643333 1.61454 -0.973333 -0.334606 0.18405 0.92421 40 36 34
0.652986 1.61254 -0.976123 -0.121745 0.668174 0.733977 38 36 35
0.656319 1.61256 -0.976667 -0.0438195 0.629934 0.775412 40 38 37
0.656667 1.61402 -0.973333 0.284237 0.380835 0.879871 40 38 37
0.643989 1.61094 -0.986667 0.552249 0.205648 0.807917 36 32 31
0.642615 1.61161 -0.983333 0.246921 -0.0784052 0.965858 38 33 31
0.657895 1.61099 -0.986667 -0.404488 -0.250232 0.879644 39 37 36
0.657548 1.61002 -0.983333 -0.0563963 -0.0297333 0.997966 40 38 37
-0.568543 0.242944 -0.599612 -0.255506 0.958509 -0.126398 171 175 172
-0.574016 0.242944 -0.601434 0.472988 0.87422 -0.109645 141 144 142
-0.573333 0.246278 -0.601676 0.639335 0.653264 -0.405582 157 161 159
-0.576667 0.246667 -0.60282 0.260645 0.961816 0.0835146 123 125 124
-0.568543 0.246278 -0.600241 -0.7294 0.581185 -0.360832 183 189 186
-0.56521 0.243333 -0.602519 -0.720624 0.593802 -0.357911 183 188 185
-0.563333 0.246667 -0.604859 -0.532676 0.846172 -0.015807 189 195 191
-0.567298 0.256992 -0.598954 -0.343411 0.887085 0.308462 198 203 200
-0.563965 0.256992 -0.600593 -0.583184 0.620883 0.523833 199 203 201
-0.566667 0.253659 -0.600834 -0.56271 0.663791 0.492686 194 199 196
-0.563333 0.253333 -0.603174 -0.487003 0.773618 0.405392 195 200 197
-0.560631 0.263067 -0.600593 -0.677933 0.721756 0.139553 203 207 204
-0.560807 0.276793 -0.60123 -0.818262 0.536701 -0.20591 199 203 201
-0.567474 0.283333 -0.597579 -0.494403 0.860247 -0.124661 178 182 180
-0.566167 0.286667 -0.599031 -0.582023 0.784779 -0.213006 178 182 180
-0.562834 0.286667 -0.602013 -0.682277 0.687131 -0.249696 191 196 194
-0.560807 0.283333 -0.603243 -0.829339 0.543967 -0.127656 197 202 200
-0.568694 0.293333 -0.59838 -0.593953 0.800865 -0.0763856 163 167 165
-0.568192 0.296667 -0.599349 -0.778217 0.599198 -0.187991 164 167 166
-0.564859 0.296667 -0.602708 -0.681715 0.712843 -0.164679 176 180 178
-0.562027 0.293333 -0.604721 -0.69699 0.701948 -0.146538 188 194 191
-0.569499 0.303333 -0.598276 -0.789991 0.608264 0.0769982 161 163 163
-0.567571 0.306667 -0.598927 -0.476051 0.855482 0.203781 173 176 175
-0.564237 0.306667 -0.601491 -0.694852 0.654758 0.297443 183 186 185
-0.562832 0.303333 -0.6042 -0.668273 0.698787 0.255163 183 187 185
-0.568072 0.313333 -0.597828 -0.486243 0.873797 0.00680987 176 180 179
-0.566724 0.316667 -0.598901 -0.628186 0.770333 -0.109405 182 185 184
-0.563391 0.316667 -0.601712 -0.64881 0.752514 -0.112997 190 194 192
-0.561405 0.313333 -0.603203 -0.727042 0.685091 -0.0453872 195 199 197
-0.47882 0.162477 -0.609784 -0.179713 0.979987 -0.0856048 197 207 204
-0.47882 0.16581 -0.610098 -0.231992 0.96642 -0.110507 199 209 206
-0.475487 0.163333 -0.610576 -0.215398 0.97089 -0.104766 197 207 204
-0.473333 0.166667 -0.611149 -0.141031 0.989601 -0.0282674 200 210 207
-0.463333 0.163333 -0.611071 0.0643745 0.997718 -0.0203697 201 211 207
-0.466667 0.166667 -0.611382 0.0724495 0.996965 -0.0284778 202 211 208
-0.453333 0.163333 -0.611618 -0.0660503 0.991224 -0.11451 205 214 211
-0.456667 0.166667 -0.611463 -0.159636 0.98697 -0.0201502 205 214 211
-0.443333 0.163333 -0.612671 -0.0824526 0.977941 -0.191918 205 214 211
-0.446667 0.166667 -0.612775 -0.161785 0.980306 -0.113249 206 214 211
-0.433333 0.163333 -0.612976 -0.0920972 0.995577 -0.0185676 204 212 209
-0.436667 0.166667 -0.613322 0.0832084 0.97788 -0.191906 205 213 210
-0.423333 0.163333 -0.61409 -0.128507 0.991708 -0.000983597 207 215 211
-0.426667 0.166667 -0.61372 -0.11121 0.993624 -0.0185311 206 215 211
-0.413333 0.163333 -0.615187 -0.0963 0.995327 -0.00710774 210 218 214
-0.416667 0.166667 -0.614868 -0.102361 0.994747 -0.000986611 211 220 215
-0.403333 0.163333 -0.615754 -0.0435482 0.999029 0.00673021 211 219 215
-0.406667 0.166667 -0.615633 -0.0296988 0.999533 -0.00713778 212 220 216
-0.473333 0.173333 -0.611752 -0.139511 0.978933 -0.149089 206 216 212
-0.476667 0.176667 -0.611879 -0.11157 0.977915 -0.17673 207 217 213
-0.463333 0.173333 -0.61226 0.0692937 0.953539 -0.293191 207 216 214
-0.466667 0.176667 -0.613009 -0.0812975 0.985328 -0.150063 209 219 215
-0.453333 0.173333 -0.613228 -0.151038 0.933811 -0.324321 206 215 212
-0.456667 0.176667 -0.613714 -0.189194 0.938574 -0.288589 207 216 213
-0.443333 0.173333 -0.61469 -0.156388 0.947606 -0.278541 203 212 209
-0.446667 0.176667 -0.615297 -0.104905 0.939436 -0.326275 203 213 209
-0.433333 0.173333 -0.614507 0.0823793 0.968136 -0.236487 202 211 208
-0.436667 0.176667 -0.615771 0.128225 0.951492 -0.279683 200 209 206
-0.423333 0.173333 -0.614985 -0.107973 0.96471 -0.240158 205 214 210
-0.426667 0.176667 -0.615426 -0.112546 0.965266 -0.235786 200 209 206
-0.413333 0.173333 -0.615549 -0.101854 0.989818 -0.0994333 208 216 212
-0.416667 0.176667 -0.616036 0.0441923 0.969435 -0.241334 202 211 206
-0.403333 0.173333 -0.615954 -0.0296472 0.997797 -0.0593553 208 216 212
-0.406667 0.176667 -0.61619 0.0112001 0.99493 -0.0999469 203 211 207
-0.473333 0.183333 -0.612686 -0.113199 0.992188 0.0524322 207 217 213
-0.476667 0.186667 -0.612546 0.0108241 0.997353 -0.0719069 203 213 209
-0.463333 0.183333 -0.613811 -0.0822274 0.996598 -0.00563795 208 218 214
-0.466667 0.186667 -0.61336 -0.139438 0.988851 0.0522558 205 216 211
-0.453333 0.183333 -0.614931 -0.195658 0.97064 0.13991 206 216 212
-0.456667 0.186667 -0.614277 -0.0517068 0.998646 -0.00564954 205 215 211
-0.443333 0.183333 -0.615922 -0.107146 0.959507 0.26051 201 211 207
-0.446667 0.186667 -0.61507 0.0155313 0.989651 0.14265 203 212 208
-0.433333 0.183333 -0.616014 0.133071 0.987452 0.0850287 200 210 206
-0.436667 0.186667 -0.615558 -0.0488053 0.963913 0.261706 201 210 207
-0.423333 0.183333 -0.616122 -0.114511 0.982119 0.149432 199 208 204
-0.426667 0.186667 -0.615446 -0.0503022 0.995052 0.0856831 201 211 207
-0.413333 0.183333 -0.616269 0.0451391 0.990204 0.132127 199 207 203
-0.416667 0.186667 -0.615914 0.0265519 0.988273 0.150369 201 210 206
-0.403333 0.183333 -0.616364 0.0112488 0.999258 0.0368341 202 211 207
-0.406667 0.186667 -0.615957 -0.0842654 0.987689 0.131792 204 213 209
-0.473333 0.193333 -0.612143 0.0106769 0.983794 0.178982 204 214 210
-0.476667 0.196667 -0.611538 0.000250976 0.981966 0.189056 208 217 214
-0.463333 0.193333 -0.612897 -0.136228 0.966088 0.219351 204 214 210
-0.466667 0.196667 -0.61182 -0.0939244 0.979501 0.178201 207 216 213
-0.453333 0.193333 -0.614264 -0.0516101 0.996779 0.0613861 204 214 210
-0.456667 0.196667 -0.613334 -0.207251 0.954006 0.216608 206 215 212
-0.443333 0.193333 -0.614251 0.0156344 0.996221 0.0854304 203 213 208
-0.446667 0.196667 -0.614098 0.0397568 0.99732 0.0614194 206 215 211
-0.433333 0.193333 -0.614465 -0.050281 0.993059 0.106328 202 212 208
-0.436667 0.196667 -0.614011 -0.0291963 0.995919 0.0854044 203 212 208
-0.423333 0.193333 -0.615064 -0.0503311 0.995623 0.0787553 204 213 209
-0.426667 0.196667 -0.614539 -0.0778386 0.9913 0.106139 204 213 210
-0.413333 0.193333 -0.615374 0.0268533 0.999492 -0.0171612 206 215 211
-0.416667 0.196667 -0.6152 -0.0690235 0.994509 0.0786672 207 215 212
-0.403333 0.193333 -0.615776 -0.0850054 0.996362 0.0059977 209 218 214
-0.406667 0.196667 -0.615549 -0.0619975 0.997929 -0.0171344 209 217 214
-0.473333 0.203333 -0.61088 0.000255582 0.999989 0.00461955 209 219 215
-0.476667 0.206667 -0.610732 -0.0397353 0.998214 0.0446018 211 220 217
-0.463333 0.203333 -0.611854 -0.095018 0.990905 -0.0952788 208 217 214
-0.466667 0.206667 -0.611519 -0.192965 0.981195 0.00453273 206 216 212
-0.453333 0.203333 -0.613002 -0.211476 0.973453 0.087559 208 218 214
-0.456667 0.206667 -0.612598 -0.0309853 0.994931 -0.0956659 207 217 213
-0.443333 0.203333 -0.61371 0.0398275 0.999096 0.0148829 208 217 213
-0.446667 0.206667 -0.613543 -0.0350238 0.995368 0.0895301 209 218 215
-0.433333 0.203333 -0.613676 -0.0292751 0.998608 0.0438841 207 215 212
-0.436667 0.206667 -0.613529 -0.000266999 0.999889 0.0148947 209 217 214
-0.423333 0.203333 -0.614335 -0.0782394 0.996405 0.0324984 206 214 211
-0.426667 0.206667 -0.613927 -0.0894053 0.995035 0.0437271 207 215 212
-0.413333 0.203333 -0.615406 -0.0690629 0.995076 -0.0710861 209 217 214
-0.416667 0.206667 -0.615066 -0.170818 0.984779 0.0321192 207 215 212
-0.403333 0.203333 -0.616107 -0.0617686 0.994245 -0.0875365 212 220 217
-0.406667 0.206667 -0.616138 -0.0782904 0.994396 -0.0710375 211 219 216
-0.473333 0.213333 -0.610839 -0.0397477 0.998527 -0.0369328 209 218 215
-0.476667 0.216667 -0.610819 -0.042958 0.998508 -0.0337211 211 219 216
-0.463333 0.213333 -0.612022 -0.19281 0.980409 0.0402831 206 215 212
-0.466667 0.216667 -0.61149 -0.117683 0.992373 -0.0367052 207 216 213
-0.453333 0.213333 -0.613102 -0.0311192 0.999229 -0.0239302 208 217 214
-0.456667 0.216667 -0.612861 -0.0956582 0.994575 0.0408652 208 217 214
-0.443333 0.213333 -0.61331 -0.0351609 0.999264 0.0153238 211 220 216
-0.446667 0.216667 -0.613272 0.00409578 0.999705 -0.0239416 211 220 217
-0.433333 0.213333 -0.613581 -0.000266905 0.999535 -0.0304767 212 220 216
-0.436667 0.216667 -0.613529 -0.0460387 0.998822 0.015317 213 221 217
-0.423333 0.213333 -0.614295 -0.089307 0.993941 -0.0640778 208 216 212
-0.426667 0.216667 -0.614097 -0.122834 0.991966 -0.0302459 209 218 214
-0.413333 0.213333 -0.615659 -0.170793 0.984634 -0.0363964 206 214 211
-0.416667 0.216667 -0.615296 -0.144131 0.987509 -0.0636631 205 213 210
-0.403333 0.213333 -0.616513 -0.0784335 0.996215 0.0374668 211 219 216
-0.406667 0.216667 -0.616374 -0.00415515 0.999309 -0.0369389 208 216 213
-0.473333 0.223333 -0.611341 -0.0428456 0.995896 -0.0797153 209 217 214
-0.476667 0.226667 -0.611608 4.54334e-05 0.992507 -0.122189 208 217 214
-0.463333 0.223333 -0.61227 -0.117406 0.990033 -0.0777844 209 217 215
-0.466667 0.226667 -0.612142 -0.11595 0.990088 -0.0792504 209 218 215
-0.453333 0.223333 -0.613255 -0.0955513 0.993464 -0.0624477 211 220 217
-0.456667 0.226667 -0.613196 -0.0799669 0.993735 -0.0780753 210 219 216
-0.443333 0.223333 -0.613756 0.00406509 0.992216 -0.124462 213 222 218
-0.446667 0.226667 -0.61398 -0.0582688 0.996335 -0.0626282 213 222 219
-0.433333 0.223333 -0.614162 -0.0454742 0.986575 -0.156851 213 221 218
-0.436667 0.226667 -0.614426 -0.0787746 0.989141 -0.124077 213 222 218
-0.423333 0.223333 -0.615057 -0.121823 0.983802 -0.131498 205 214 211
-0.426667 0.226667 -0.615174 -0.096828 0.982956 -0.156275 208 216 213
-0.413333 0.223333 -0.616013 -0.144422 0.989504 -0.00483156 203 212 208
-0.416667 0.226667 -0.615972 -0.0170199 0.991041 -0.132466 202 210 208
-0.403333 0.223333 -0.616794 -0.00414306 0.996401 -0.0846628 206 214 212
-0.406667 0.226667 -0.616797 -0.0839454 0.996458 -0.00486552 203 211 208
-0.473333 0.233333 -0.612291 4.56246e-05 0.996685 -0.0813601 203 213 209
-0.476667 0.236667 -0.612391 -0.0514831 0.998224 -0.0299569 200 210 207
-0.463333 0.233333 -0.61296 -0.116182 0.992067 -0.047998 205 215 212
-0.466667 0.236667 -0.612842 -0.0832938 0.993221 -0.0810774 200 210 207
-0.453333 0.233333 -0.613972 -0.0799953 0.994088 -0.0734197 207 216 213
-0.456667 0.236667 -0.613865 -0.105234 0.993286 -0.048057 202 211 209
-0.443333 0.233333 -0.614749 -0.0580387 0.992401 -0.108498 208 218 214
-0.446667 0.236667 -0.6148 -0.0932921 0.992934 -0.0733345 203 212 209
-0.433333 0.233333 -0.615409 -0.0790732 0.99289 -0.0889815 209 217 214
-0.436667 0.236667 -0.615508 -0.0594685 0.992317 -0.108489 204 213 210
-0.423333 0.233333 -0.616294 -0.0977342 0.992156 -0.0779436 204 212 210
-0.426667 0.236667 -0.616264 -0.0867705 0.992252 -0.0889243 205 213 210
-0.413333 0.233333 -0.616683 -0.0171378 0.997904 -0.0623995 205 213 210
-0.416667 0.236667 -0.616888 -0.00114089 0.996928 -0.0783185 204 213 210
-0.403333 0.233333 -0.6176 -0.0830024 0.985265 -0.149546 204 213 210
-0.406667 0.236667 -0.617527 -0.170619 0.983416 -0.0614935 207 216 213
-0.69173 -0.461063 -0.610555 -0.273377 0.852771 -0.445024 113 78 25
-0.681025 -0.464644 -0.610303 0.185894 0.971763 0.145328 120 87 32
-0.684358 -0.463333 -0.610857 0.230633 0.960123 0.158026 118 84 30
-0.684142 -0.467729 -0.610303 -0.326322 0.87288 -0.362761 121 90 35
-0.686667 -0.464396 -0.610857 -0.367865 0.824377 -0.430206 117 85 30
-0.675942 -0.461311 -0.610624 -0.230627 0.964651 0.127515 119 84 30
-0.676667 -0.464644 -0.610926 -0.236314 0.96099 0.143717 122 89 34
-0.673333 -0.466667 -0.61143 -0.0604204 0.997535 -0.0356974 123 91 35
-0.663333 -0.466667 -0.612139 -0.0604708 0.995983 -0.0660407 123 93 37
-0.666667 -0.463333 -0.612056 -0.0908011 0.995232 -0.035615 121 87 32
-0.653333 -0.466667 -0.612923 -0.00950829 0.976319 -0.216128 122 95 40
-0.656667 -0.463333 -0.613112 -0.162262 0.984586 -0.065285 120 88 34
-0.695063 -0.458315 -0.609008 -0.449737 -0.783945 -0.427979 111 76 24
-0.693333 -0.456928 -0.605674 -0.506008 -0.439676 -0.742051 108 73 24
-0.696667 -0.455318 -0.603333 -0.0665616 0.0226071 -0.997526 106 71 23
-0.687692 -0.458613 -0.605674 0.214049 -0.497938 -0.840381 109 74 24
-0.684358 -0.458057 -0.606667 0.391376 -0.571259 -0.721449 111 76 25
-0.683333 -0.456798 -0.603333 -0.0377031 -0.206099 -0.977805 109 74 25
-0.701674 -0.451648 -0.61039 -0.221062 0.949058 -0.224546 112 76 24
-0.698397 -0.454982 -0.61039 -0.235162 0.945843 -0.223785 112 77 24
-0.695063 -0.456667 -0.610945 -0.295574 0.922012 -0.250058 113 77 24
-0.693333 -0.453333 -0.611775 -0.130483 0.988078 -0.0817054 112 77 24
-0.684358 -0.459444 -0.610555 0.214529 0.89308 -0.395455 114 79 25
-0.683333 -0.456111 -0.611342 0.201333 0.942389 -0.267149 114 79 25
-0.686667 -0.453333 -0.612172 0.0128069 0.996517 -0.0824032 113 78 25
-0.671158 -0.45475 -0.610624 0.353941 0.889379 0.289362 118 82 29
-0.674491 -0.453333 -0.611411 0.326506 0.902082 0.282208 117 81 28
-0.675942 -0.459444 -0.610624 -0.222525 0.930763 -0.290108 117 82 28
-0.676667 -0.456111 -0.611411 -0.219966 0.938526 -0.266054 117 81 27
-0.665612 -0.451416 -0.610858 -0.340764 0.905252 0.253769 117 82 28
-0.666667 -0.45475 -0.611481 -0.352071 0.89005 0.289581 118 83 29
-0.663333 -0.456667 -0.612409 -0.0908388 0.995646 0.0209351 119 84 30
-0.653333 -0.456667 -0.612887 -0.155989 0.946523 0.282422 114 81 29
-0.656667 -0.453333 -0.612268 0.111818 0.993509 0.0208901 115 82 29
-0.643333 -0.456667 -0.614494 -0.00475666 0.999945 -0.00939889 111 79 28
-0.646667 -0.453333 -0.613484 -0.286897 0.917969 0.273902 110 78 27
-0.713333 -0.448334 -0.609357 0.000543064 0.9818 -0.189916 110 75 24
-0.716667 -0.44744 -0.609679 0.0781226 0.938352 -0.336737 109 76 23
-0.708341 -0.448334 -0.609678 -0.187387 0.964409 -0.186552 111 75 24
-0.671158 -0.447742 -0.609169 0.55859 0.778394 -0.286496 115 79 27
-0.668945 -0.447742 -0.609169 -0.59449 0.754613 -0.277743 116 80 27
-0.716667 -0.444107 -0.610193 0.018326 0.996707 -0.0789918 110 76 23
-0.713333 -0.441667 -0.610551 -0.0481258 0.976613 -0.209548 111 75 22
-0.708341 -0.445 -0.610358 -0.206201 0.956734 -0.205282 111 75 23
-0.705008 -0.446667 -0.610748 -0.221676 0.951697 -0.212444 112 76 24
-0.703333 -0.443333 -0.611192 -0.0259583 0.999531 -0.016262 112 76 23
-0.693333 -0.446667 -0.612093 -0.13091 0.991314 -0.0126077 112 77 24
-0.696667 -0.443333 -0.611707 -0.127441 0.991715 -0.0161349 111 76 23
-0.683333 -0.446667 -0.612298 0.012844 0.9994 0.0321653 113 79 25
-0.686667 -0.443333 -0.612383 0.0576538 0.998256 -0.012696 112 78 24
-0.674491 -0.447742 -0.610787 0.33527 0.926296 -0.171957 115 79 26
-0.673333 -0.444409 -0.611045 0.361132 0.906942 -0.216886 115 80 27
-0.676667 -0.443333 -0.611725 0.125789 0.991544 0.0319124 115 79 26
-0.668945 -0.444409 -0.610257 -0.445656 0.870655 -0.208209 116 80 27
-0.665612 -0.446667 -0.611115 -0.346499 0.920487 -0.180674 116 81 28
-0.663333 -0.443333 -0.611397 -0.00731489 0.985382 0.170201 114 80 27
-0.653333 -0.446667 -0.611801 0.11184 0.993705 0.00650481 110 77 27
-0.656667 -0.443333 -0.6116 -0.0527746 0.984035 0.169968 111 78 27
-0.643333 -0.446667 -0.61255 -0.287185 0.918891 0.270489 108 76 26
-0.646667 -0.443333 -0.611486 -0.0247074 0.999673 0.00654388 107 75 26
-0.641195 -0.431028 -0.609755 0.1957 0.953901 0.227538 105 72 25
-0.713333 -0.436667 -0.610825 -0.0492032 0.998476 0.0249977 110 75 22
-0.716667 -0.433333 -0.610694 -0.0144593 0.999848 -0.00977939 111 76 22
-0.703333 -0.436667 -0.611264 -0.0259613 0.999648 -0.00551411 111 75 22
-0.706667 -0.433333 -0.611094 -0.0564147 0.998095 0.0249882 111 75 22
-0.693333 -0.436667 -0.611781 -0.126528 0.984608 0.120571 111 76 22
-0.696667 -0.433333 -0.611371 -0.000534049 0.999985 -0.00551597 111 76 22
-0.683333 -0.436667 -0.611765 0.0571014 0.988692 0.138665 112 77 24
-0.686667 -0.433333 -0.611549 0.07478 0.989806 0.121207 111 77 23
-0.673333 -0.436667 -0.611275 0.125817 0.991762 -0.0240351 114 79 26
-0.676667 -0.433333 -0.611231 -0.0372338 0.989621 0.138795 113 78 25
-0.663333 -0.436667 -0.610751 -0.00742158 0.999754 0.0208918 112 78 27
-0.666667 -0.433333 -0.610807 0.0376705 0.998997 -0.0242105 112 78 27
-0.653333 -0.436667 -0.611093 -0.0535245 0.998017 0.0331259 108 75 25
-0.656667 -0.433333 -0.610844 -0.0412918 0.998929 0.0208745 109 76 25
-0.641195 -0.434361 -0.610543 0.193495 0.954958 0.224976 105 73 25
-0.644529 -0.433333 -0.610893 0.157851 0.964067 0.213677 105 73 24
-0.646667 -0.436667 -0.611354 -0.0246943 0.999145 0.0331633 106 73 24
-0.719908 -0.420102 -0.599881 -0.642443 0.499045 0.581567 106 69 20
-0.716574 -0.420102 -0.6031 -0.585967 0.612596 0.530442 108 71 21
-0.713333 -0.421595 -0.606433 -0.678482 0.725812 0.113401 109 72 22
-0.716667 -0.424185 -0.606667 -0.254927 0.578356 0.77493 109 73 22
-0.703333 -0.423391 -0.609527 0.0293698 0.969846 0.241943 111 75 23
-0.706667 -0.421493 -0.609293 0.0710049 0.98552 0.153978 111 74 23
-0.697552 -0.421898 -0.609527 -0.184421 0.953622 0.237896 112 75 23
-0.641195 -0.428932 -0.609755 0.196072 0.955717 -0.219454 105 72 25
-0.716667 -0.429257 -0.6105 -0.013835 0.956678 0.290819 111 76 23
-0.713333 -0.427417 -0.610274 -0.0484313 0.987917 0.147222 111 75 22
-0.706667 -0.42816 -0.610737 -0.0558179 0.987536 0.147165 111 74 22
-0.703333 -0.426725 -0.610463 0.0372118 0.951129 0.306544 111 75 22
-0.694218 -0.421898 -0.610217 -0.227911 0.928236 0.293997 112 76 23
-0.696667 -0.425231 -0.61068 -0.230346 0.926193 0.298508 112 76 23
-0.693333 -0.426667 -0.611144 -0.000532596 0.997264 0.0739244 111 76 22
-0.683333 -0.426667 -0.610932 0.0753293 0.997078 -0.0126582 112 78 24
-0.686667 -0.423333 -0.610937 -0.0112409 0.997201 0.0739197 112 78 23
-0.673333 -0.426667 -0.610985 -0.0375821 0.998876 -0.0288791 112 77 25
-0.676667 -0.423333 -0.610902 -0.0537584 0.998473 -0.0126759 112 78 25
-0.663333 -0.426667 -0.610836 0.0376724 0.999049 -0.0219518 110 77 26
-0.666667 -0.423333 -0.611058 0.0445842 0.998588 -0.0288708 111 77 25
-0.653333 -0.426667 -0.610974 -0.0412937 0.998976 -0.0185128 107 74 24
-0.656667 -0.423333 -0.61091 -0.0378589 0.999042 -0.0219516 108 75 24
-0.644529 -0.428932 -0.61035 0.159004 0.971106 -0.177965 105 72 24
-0.643333 -0.425599 -0.610836 0.167465 0.963963 -0.206716 107 74 25
-0.646667 -0.423333 -0.611248 -0.022177 0.999582 -0.0185241 106 73 24
-0.719908 -0.417983 -0.599881 -0.789213 0.613054 -0.036167 107 70 21
-0.719908 -0.414649 -0.600167 -0.939392 0.340132 -0.0430493 108 71 22
-0.716574 -0.416667 -0.603267 -0.690172 0.721537 -0.0551975 109 72 22
-0.713333 -0.413333 -0.604809 -0.350262 0.848582 0.396517 110 73 23
-0.703333 -0.416667 -0.607547 0.0671566 0.932107 0.355901 111 74 23
-0.706667 -0.413333 -0.60623 -0.0121366 0.905907 0.423303 111 74 23
-0.690885 -0.41575 -0.608675 -0.445755 0.784884 0.430418 112 76 23
-0.694218 -0.416667 -0.608201 -0.173743 0.898407 0.403334 112 76 23
-0.696667 -0.413333 -0.606455 -0.117151 0.927783 0.35425 112 75 23
-0.683333 -0.413789 -0.609646 -0.077989 0.965362 0.248984 114 79 25
-0.686667 -0.412417 -0.608321 -0.247539 0.849525 0.465866 113 77 24
-0.673333 -0.412732 -0.609543 -0.00130154 0.947797 0.318871 112 76 24
-0.676667 -0.411373 -0.609189 0.0299655 0.967877 0.249633 113 78 25
-0.663333 -0.413502 -0.609244 0.0780283 0.940175 0.331636 110 75 25
-0.666667 -0.411359 -0.608787 0.0846571 0.944396 0.317726 110 75 24
-0.657343 -0.412143 -0.609244 -0.259218 0.910816 0.32128 109 75 25
-0.641276 -0.410606 -0.609851 0.112469 0.965054 0.236689 110 76 27
-0.690885 -0.419083 -0.610217 -0.23237 0.946393 0.224375 112 77 23
-0.686667 -0.419083 -0.610472 -0.0109677 0.972969 0.230675 113 78 24
-0.683333 -0.417123 -0.610255 -0.0403454 0.990849 0.128805 114 78 24
-0.676667 -0.418039 -0.610689 -0.0533155 0.990246 0.128727 113 78 25
-0.673333 -0.416065 -0.610434 -0.000877021 0.976643 0.214865 112 77 25
-0.666667 -0.418026 -0.61072 0.043563 0.975717 0.214661 110 76 24
-0.663333 -0.416836 -0.610286 0.0548125 0.970939 0.232964 109 75 24
-0.65401 -0.412143 -0.610183 -0.248027 0.918685 0.30741 108 75 25
-0.656667 -0.415477 -0.610468 -0.199251 0.952903 0.228636 108 75 25
-0.653333 -0.416667 -0.61088 -0.037779 0.996934 0.0685225 107 74 24
-0.641276 -0.41394 -0.610486 0.0830465 0.981101 0.17477 109 76 26
-0.644609 -0.413333 -0.610669 0.0870796 0.980491 0.176225 108 75 26
-0.646667 -0.416667 -0.61108 -0.0221286 0.997402 0.0685546 107 74 25
-0.713333 -0.406667 -0.602723 -0.377508 0.91459 0.144956 110 73 22
-0.716667 -0.403333 -0.60136 -0.243074 0.970001 -0.00356705 110 72 22
-0.703333 -0.406667 -0.604435 -0.0133484 0.996356 0.0842446 112 75 23
-0.706667 -0.403333 -0.603862 -0.0859416 0.984018 0.15596 111 74 23
-0.693333 -0.406667 -0.605431 -0.125111 0.990822 0.0511694 113 76 23
-0.696667 -0.403333 -0.604728 -0.156655 0.984142 0.0832119 113 76 23
-0.683333 -0.406667 -0.607597 -0.278182 0.954687 0.105766 114 78 25
-0.686667 -0.403333 -0.606454 -0.225936 0.972846 0.050241 114 77 24
-0.673333 -0.406667 -0.609061 0.0307955 0.994683 -0.0982678 112 76 24
-0.676667 -0.403333 -0.608795 -0.1748 0.978617 0.108417 113 78 25
-0.663333 -0.406667 -0.608415 0.0886992 0.989488 -0.114219 110 76 25
-0.666667 -0.403333 -0.609044 0.0724572 0.99254 -0.098056 111 76 24
-0.650677 -0.406219 -0.608976 -0.215918 0.920211 0.326481 107 74 25
-0.65401 -0.406667 -0.60822 -0.258282 0.907527 0.331187 108 74 25
-0.656667 -0.403333 -0.607849 0.190899 0.975135 -0.112562 110 75 25
-0.641276 -0.408977 -0.609851 0.114571 0.983092 -0.142843 111 77 27
-0.647261 -0.402886 -0.608976 -0.332299 0.888887 0.315368 109 74 25
-0.650677 -0.409552 -0.610183 -0.242495 0.898194 0.366667 107 74 25
-0.643928 -0.402886 -0.610307 -0.421003 0.814318 0.399552 110 76 26
-0.646667 -0.406219 -0.61049 -0.381397 0.855845 0.349379 109 75 26
-0.641276 -0.405643 -0.610307 0.105226 0.985757 -0.131192 111 77 27
-0.644609 -0.406667 -0.61049 0.087773 0.988299 -0.124746 110 76 26
0.128607 0.161393 -0.561393 0.577349 -0.577352 -0.577349 122 145 104
0.0866667 0.163333 -0.639332 -0.0223616 0.99778 -0.0627342 166 166 154
0.0833333 0.166667 -0.639364 -0.0532571 0.998072 -0.0318637 164 164 153
0.0931667 0.163333 -0.639674 -0.0840283 0.9945 -0.062528 158 159 147
