ply
format ascii 1.0
comment Generated by the ZED SDK.
element vertex 699
property float32 x
property float32 y
property float32 z
property float32 nx
property float32 ny
property float32 nz
property uchar red
property uchar green
property uchar blue
end_header
0.0933333 0.208266 -0.650074 -0.0207288 0.992021 -0.124356 166 170 167
0.0966667 0.208855 -0.650204 -0.0167433 0.993472 -0.112845 172 176 173
0.103333 0.206733 -0.65013 -0.0330769 0.993067 -0.112799 175 179 175
0.106667 0.207878 -0.650407 -0.0437001 0.990637 -0.129336 175 179 175
0.113333 0.205061 -0.650277 -0.0269575 0.991224 -0.129412 173 176 173
0.116667 0.207183 -0.650562 -0.00229239 0.994926 -0.100586 175 178 175
0.120573 0.20385 -0.650285 -0.0902748 0.990866 -0.100176 172 175 173
0.123907 0.203333 -0.650534 -0.0895214 0.990947 -0.100053 168 172 169
0.126667 0.206667 -0.6509 -0.0244679 0.999085 -0.035086 172 175 173
0.136667 0.203333 -0.6512 -0.0568402 0.998145 -0.0217872 164 169 165
0.133333 0.206667 -0.651128 -0.043587 0.998434 -0.0350631 172 176 173
0.146667 0.203333 -0.651843 -0.0484532 0.996996 -0.0604334 164 168 164
0.143333 0.206667 -0.651754 -0.0870347 0.995968 -0.0217397 171 175 171
0.156667 0.203333 -0.652538 -0.074291 0.994736 -0.0705799 166 171 166
0.153333 0.206667 -0.652491 -0.0845622 0.994593 -0.0602878 171 175 171
0.0818227 0.211301 -0.649892 -0.0590877 0.994817 -0.0827532 167 171 168
0.0818227 0.214635 -0.650148 -0.0516641 0.99604 -0.0723563 166 170 168
0.085156 0.213333 -0.650221 -0.0487082 0.996304 -0.0707517 164 168 166
0.0866667 0.216667 -0.650444 -0.0224786 0.998753 -0.0445763 166 169 167
0.0966667 0.213333 -0.65041 -0.0168466 0.999598 -0.022818 173 176 173
0.0933333 0.216667 -0.650503 0.00494649 0.998993 -0.044587 170 173 170
0.106667 0.213333 -0.650899 -0.0439794 0.996969 -0.0641817 177 180 176
0.103333 0.216667 -0.650828 -0.0853282 0.996093 -0.022738 177 180 177
0.116667 0.213333 -0.651128 -0.0022959 0.99645 -0.0841576 177 180 178
0.113333 0.216667 -0.651335 -0.0223328 0.997685 -0.0642278 177 180 176
0.126667 0.213333 -0.651296 -0.0243981 0.996234 -0.0831969 178 182 179
0.123333 0.216667 -0.651496 -0.0234543 0.996178 -0.0841346 177 181 178
0.136667 0.213333 -0.651652 -0.0434804 0.995992 -0.078169 178 182 179
0.133333 0.216667 -0.651785 -0.0384651 0.995794 -0.0831601 178 182 179
0.146667 0.213333 -0.652351 -0.0868463 0.993812 -0.0692556 178 183 179
0.143333 0.216667 -0.652321 -0.0781101 0.993888 -0.0780039 177 182 179
0.156667 0.213333 -0.653353 -0.0841854 0.99016 -0.111781 178 182 178
0.153333 0.216667 -0.653302 -0.126883 0.989518 -0.0689564 178 182 179
0.0866667 0.223333 -0.650826 -0.0224464 0.997319 -0.0696446 171 174 172
0.0833333 0.226667 -0.650978 -0.0239775 0.997389 -0.06812 173 176 174
0.0966667 0.223333 -0.650814 0.0049443 0.99855 -0.0536026 174 178 176
0.0933333 0.226667 -0.651063 0.021047 0.99735 -0.0696468 174 177 176
0.106667 0.223333 -0.651421 -0.0851473 0.993982 -0.0689187 177 180 177
0.103333 0.226667 -0.651314 -0.100659 0.993491 -0.053331 177 181 179
0.116667 0.223333 -0.651805 -0.0223463 0.998285 -0.0540987 178 181 178
0.113333 0.226667 -0.651961 -0.00722277 0.997579 -0.0691681 178 181 178
0.126667 0.223333 -0.652136 -0.0234553 0.996218 -0.0836667 179 183 180
0.123333 0.226667 -0.652238 -0.0531836 0.997122 -0.0540356 179 184 180
0.136667 0.223333 -0.652431 -0.0384998 0.996691 -0.0715855 178 182 179
0.133333 0.226667 -0.652582 -0.0263644 0.996145 -0.0836607 179 183 180
0.146667 0.223333 -0.653018 -0.0782437 0.995589 -0.0517726 176 181 178
0.143333 0.226667 -0.652995 -0.0585178 0.995721 -0.0715158 177 181 178
0.156667 0.223333 -0.654256 -0.126699 0.988083 -0.0874086 177 182 178
0.153333 0.226667 -0.654002 -0.162286 0.985412 -0.0512434 176 181 177
0.0866667 0.233333 -0.651565 -0.0239494 0.996221 -0.0834846 178 181 178
0.0833333 0.236667 -0.651568 -0.0826299 0.996271 -0.0248095 178 182 177
0.0966667 0.233333 -0.651534 0.0210083 0.995519 -0.0921982 179 182 179
0.0933333 0.236667 -0.651884 0.0122471 0.996432 -0.0835023 180 183 180
0.106667 0.233333 -0.651821 -0.100802 0.994903 0.00277812 177 181 178
0.103333 0.236667 -0.651792 -0.00588748 0.995721 -0.092217 178 182 179
0.116667 0.233333 -0.652347 -0.00723455 0.999206 -0.0391687 178 182 179
0.113333 0.236667 -0.652314 -0.0491727 0.998786 0.00278897 177 181 178
0.126667 0.233333 -0.652748 -0.0532062 0.997546 -0.0455194 178 182 179
0.123333 0.236667 -0.652701 -0.0596166 0.997455 -0.0391001 177 181 178
0.136667 0.233333 -0.653181 -0.0263943 0.997276 -0.0688807 179 183 180
0.133333 0.236667 -0.653245 -0.0497902 0.997721 -0.0455274 177 182 179
0.146667 0.233333 -0.653669 -0.0585191 0.995744 -0.0711984 176 181 178
0.143333 0.236667 -0.653703 -0.060944 0.995769 -0.0687767 177 182 179
0.156667 0.233333 -0.654864 -0.16236 0.985862 -0.0414136 176 180 177
0.153333 0.236667 -0.654554 -0.133639 0.988506 -0.0706809 176 181 177
0.609665 1.72954 -1.04023 -0.525028 0.760864 -0.381355 104 91 75
0.610472 1.72954 -1.04023 0.401122 0.81892 -0.410453 105 91 75
0.639612 1.72967 -1.04015 -0.333491 0.857339 -0.392115 109 95 78
0.609665 1.73038 -1.04023 -0.508458 0.73685 0.44556 105 91 75
0.610472 1.73038 -1.04023 0.386564 0.789199 0.477214 105 91 75
0.639612 1.73017 -1.04015 -0.277209 0.71265 0.644427 109 95 78
0.246667 0.403333 -0.664426 -0.0346165 0.999396 0.00320241 171 174 160
0.243333 0.406667 -0.664316 -0.029589 0.99956 -0.00183025 171 173 160
0.256667 0.403333 -0.664929 -0.0501114 0.998662 -0.0127774 171 173 159
0.253333 0.406667 -0.664751 -0.0660326 0.997812 0.00319734 170 173 159
0.266667 0.403333 -0.665652 -0.0796105 0.996629 -0.0198 169 171 156
0.263333 0.406667 -0.665429 -0.0866183 0.99616 -0.0127454 170 173 158
0.276667 0.403333 -0.666274 -0.0454948 0.998343 -0.0352503 167 169 154
0.273333 0.406667 -0.666188 -0.0608871 0.997948 -0.0198262 165 168 153
0.286667 0.403333 -0.666616 -0.0351032 0.999141 -0.0220376 171 173 157
0.283333 0.406667 -0.666616 -0.0218622 0.999138 -0.0352784 167 169 155
0.296667 0.403333 -0.667023 -0.0599089 0.998142 0.0110878 170 172 156
0.293333 0.406667 -0.666896 -0.0268393 0.999397 -0.0220433 170 171 156
0.306667 0.403333 -0.667637 -0.0583564 0.998289 0.00360253 168 170 153
0.303333 0.406667 -0.667406 -0.0658091 0.997771 0.0110836 169 170 154
0.316667 0.403333 -0.668287 -0.0777909 0.996697 0.0233221 167 169 154
0.313333 0.406667 -0.668014 -0.0581591 0.998301 0.00360257 167 169 153
0.246667 0.413333 -0.664473 -0.0295855 0.999442 -0.0155019 166 169 156
0.243333 0.416667 -0.664327 -0.0592237 0.998144 0.0141948 162 165 153
0.256667 0.413333 -0.66509 -0.0659836 0.997072 -0.0386514 167 170 155
0.253333 0.416667 -0.664921 -0.0890656 0.995906 -0.0154471 164 166 153
0.266667 0.413333 -0.665854 -0.0865921 0.995859 -0.0277016 166 168 153
0.263333 0.416667 -0.665694 -0.0757289 0.99638 -0.0386246 164 166 151
0.276667 0.413333 -0.666522 -0.0608877 0.997959 -0.019263 163 166 151
0.273333 0.416667 -0.666412 -0.0524055 0.99824 -0.0277678 162 165 150
0.286667 0.413333 -0.66699 -0.021843 0.998259 -0.0547827 161 163 148
0.283333 0.416667 -0.666982 -0.0573517 0.998168 -0.019267 158 161 146
0.296667 0.413333 -0.667223 -0.0268136 0.998441 -0.0489577 163 165 150
0.293333 0.416667 -0.667316 -0.0209752 0.998278 -0.0547837 157 160 145
0.306667 0.413333 -0.66764 -0.0658054 0.997715 -0.0153305 162 163 149
0.303333 0.416667 -0.667583 -0.0322321 0.998281 -0.0489498 157 159 145
0.316667 0.413333 -0.668189 -0.0581593 0.998305 0.00216308 163 164 149
0.313333 0.416667 -0.668046 -0.0406872 0.999054 -0.0153511 157 159 144
0.246667 0.423333 -0.664555 -0.0592136 0.997975 -0.0232378 165 167 155
0.243333 0.426667 -0.664425 -0.0621075 0.997862 -0.0203345 171 174 161
0.256667 0.423333 -0.665263 -0.089076 0.996022 0.00234051 166 168 154
0.253333 0.426667 -0.665043 -0.0636504 0.997702 -0.0232314 171 173 160
0.266667 0.423333 -0.665995 -0.0757633 0.996832 0.0241922 164 167 152
0.263333 0.426667 -0.665734 -0.0540057 0.998538 0.00234642 170 173 158
0.276667 0.423333 -0.666579 -0.052402 0.998173 0.0300734 165 168 152
0.273333 0.426667 -0.666323 -0.0465742 0.998621 0.0242356 169 172 157
0.286667 0.423333 -0.667121 -0.0573279 0.997753 0.0346814 162 165 148
0.283333 0.426667 -0.66683 -0.0527285 0.998156 0.0300729 170 173 156
0.296667 0.423333 -0.667672 -0.0209968 0.999307 -0.0307404 156 159 144
0.293333 0.426667 -0.667486 -0.0861588 0.99568 0.0346094 164 166 150
0.306667 0.423333 -0.667946 -0.0322585 0.999098 -0.0276087 156 159 144
0.303333 0.426667 -0.667941 -0.0291334 0.999103 -0.0307341 161 164 149
0.316667 0.423333 -0.668345 -0.0406691 0.99861 -0.0335227 156 158 145
0.313333 0.426667 -0.668302 -0.0465929 0.998533 -0.0275931 160 163 148
0.246667 0.433333 -0.664722 -0.0621191 0.998048 -0.00644948 178 181 167
0.243333 0.436667 -0.664578 -0.0494755 0.998592 -0.0191304 179 182 168
0.256667 0.433333 -0.665356 -0.0636661 0.997948 -0.00679146 176 178 164
0.253333 0.436667 -0.665165 -0.0640075 0.997929 -0.00644871 177 179 165
0.266667 0.433333 -0.66584 -0.0539951 0.998342 0.0199483 175 177 163
0.263333 0.436667 -0.665682 -0.0272872 0.999605 -0.00680273 175 177 163
0.276667 0.433333 -0.666443 -0.0465836 0.998823 -0.0135034 175 177 162
0.273333 0.436667 -0.666221 -0.0798672 0.996607 0.0199136 174 176 162
0.286667 0.433333 -0.666941 -0.0527494 0.998551 -0.0106657 177 179 162
0.283333 0.436667 -0.66681 -0.0499209 0.998662 -0.0135012 177 179 163
0.296667 0.433333 -0.667626 -0.0862065 0.996231 0.00959201 171 173 157
0.293333 0.436667 -0.667373 -0.0660747 0.997758 -0.0106572 176 178 162
0.306667 0.433333 -0.668217 -0.0291396 0.999314 -0.0228344 167 170 154
0.303333 0.436667 -0.668088 -0.0615183 0.99806 0.00960961 170 173 157
0.316667 0.433333 -0.668555 -0.0466106 0.998912 -0.00164616 165 168 153
0.313333 0.436667 -0.668476 -0.0254444 0.999415 -0.0228367 168 170 155
0.246667 0.443333 -0.664808 -0.0494846 0.998775 -6.09604e-05 178 180 167
0.243333 0.446667 -0.664676 -0.0396169 0.999165 -0.00994805 178 180 167
0.256667 0.443333 -0.665352 -0.0640021 0.997845 0.0144798 175 178 163
0.253333 0.446667 -0.665138 -0.0495074 0.998774 -6.09603e-05 175 178 163
0.266667 0.443333 -0.66583 -0.0272864 0.999575 -0.0103029 173 176 161
0.263333 0.446667 -0.665691 -0.0520403 0.99854 0.0144899 173 175 160
0.276667 0.443333 -0.66642 -0.0798831 0.996804 0.000220545 171 174 159
0.273333 0.446667 -0.666188 -0.0694389 0.997533 -0.0102819 170 173 158
0.286667 0.443333 -0.667027 -0.0499254 0.998751 -0.00175257 177 179 163
0.283333 0.446667 -0.66686 -0.0518938 0.998653 0.000220954 172 174 158
0.296667 0.443333 -0.667559 -0.0660635 0.997589 0.0212651 176 178 163
0.293333 0.446667 -0.667344 -0.0431117 0.999069 -0.00175313 176 178 162
0.306667 0.443333 -0.668218 -0.0615161 0.998024 0.0128073 171 173 158
0.303333 0.446667 -0.667942 -0.0699342 0.997325 0.0212595 172 173 158
0.316667 0.443333 -0.668646 -0.0254509 0.999672 -0.00282195 169 171 156
0.313333 0.446667 -0.668518 -0.0410767 0.999074 0.0128208 170 172 156
0.246667 0.453333 -0.664891 -0.0396143 0.9991 -0.0151612 177 179 165
0.243333 0.456667 -0.664795 -0.0440602 0.998971 -0.0107083 177 180 166
0.256667 0.453333 -0.665306 -0.0495074 0.998774 -0.000647703 173 176 161
0.253333 0.456667 -0.665191 -0.0350163 0.999272 -0.0151638 175 177 163
0.266667 0.453333 -0.665842 -0.0520442 0.998614 -0.00778644 169 171 157
0.263333 0.456667 -0.665671 -0.0591613 0.998248 -0.000647362 169 171 157
0.276667 0.453333 -0.66643 -0.0694407 0.99756 0.00723024 169 172 157
0.273333 0.456667 -0.666224 -0.0544827 0.998484 -0.00778542 169 171 156
0.286667 0.453333 -0.666993 -0.0518902 0.998583 0.0118012 172 175 159
0.283333 0.456667 -0.666796 -0.0473394 0.998853 0.00723961 171 174 159
0.296667 0.453333 -0.667463 -0.0431099 0.999028 0.00916924 174 176 160
0.293333 0.456667 -0.66728 -0.0457405 0.998884 0.0118047 175 178 162
0.306667 0.453333 -0.668021 -0.0699281 0.997238 0.025039 171 173 157
0.303333 0.456667 -0.667757 -0.0541099 0.998493 0.00916433 172 175 160
0.316667 0.453333 -0.668567 -0.0410763 0.999063 0.013621 170 172 157
0.313333 0.456667 -0.668346 -0.0525003 0.998306 0.0250658 170 172 158
0.246667 0.463333 -0.665044 -0.044054 0.998832 -0.0198361 176 178 165
0.243333 0.466667 -0.664918 -0.0574903 0.998326 -0.0063675 175 178 165
0.256667 0.463333 -0.665479 -0.0349974 0.998732 -0.0361937 171 174 160
0.253333 0.466667 -0.665429 -0.0513442 0.998484 -0.0198292 172 174 161
0.266667 0.463333 -0.665911 -0.0591569 0.998174 -0.012238 166 169 155
0.263333 0.466667 -0.665834 -0.0352409 0.998723 -0.0361934 167 169 156
0.276667 0.463333 -0.66641 -0.0544833 0.998495 0.00636095 168 170 156
0.273333 0.466667 -0.666269 -0.0359086 0.99928 -0.0122516 165 168 155
0.286667 0.463333 -0.666956 -0.0473392 0.998848 -0.00783398 173 175 161
0.283333 0.466667 -0.666776 -0.0614895 0.998087 0.00635836 170 173 159
0.296667 0.463333 -0.667424 -0.0457416 0.998908 -0.00947299 172 174 160
0.293333 0.466667 -0.667298 -0.0473772 0.998846 -0.00783397 171 173 160
0.306667 0.463333 -0.667968 -0.0541029 0.998364 -0.0185091 171 173 159
0.303333 0.466667 -0.667819 -0.0631187 0.997961 -0.009464 170 172 158
0.316667 0.463333 -0.668492 -0.05251 0.99849 -0.0161118 168 171 158
0.313333 0.466667 -0.668378 -0.0501145 0.998572 -0.018513 168 171 157
0.246667 0.473333 -0.665051 -0.0574749 0.998058 0.0240012 170 172 161
0.243333 0.476667 -0.664899 -0.0217066 0.999694 -0.0118219 167 170 160
0.256667 0.473333 -0.665625 -0.0513503 0.998603 0.0124719 166 168 156
0.253333 0.476667 -0.665373 -0.062838 0.997735 0.0239934 164 167 156
0.266667 0.473333 -0.666026 -0.0352606 0.999281 0.0139517 163 166 154
0.263333 0.476667 -0.665867 -0.0337915 0.999351 0.0124812 161 164 153
0.276667 0.473333 -0.666548 -0.035889 0.998735 -0.0352261 164 166 155
0.273333 0.476667 -0.666381 -0.0848515 0.996296 0.0139101 161 164 153
0.286667 0.473333 -0.667016 -0.0614823 0.99797 -0.0165983 165 168 156
0.283333 0.476667 -0.666928 -0.0429025 0.998458 -0.0352163 162 164 153
0.296667 0.473333 -0.667586 -0.0473558 0.998395 -0.0310703 167 169 157
0.293333 0.476667 -0.667483 -0.0617933 0.997951 -0.016598 164 167 155
0.306667 0.473333 -0.668125 -0.0631102 0.997827 -0.0189255 168 170 157
0.303333 0.476667 -0.668018 -0.0510029 0.998215 -0.0310648 166 169 156
0.316667 0.473333 -0.668603 -0.050123 0.998742 0.00137156 164 167 154
0.313333 0.476667 -0.668499 -0.0298275 0.999375 -0.0189548 165 168 155
0.181174 0.061363 -0.639842 -0.132275 0.984642 -0.113947 51 51 49
0.406667 0.323333 -0.671863 0.0260677 0.997008 -0.0727644 166 169 153
0.403333 0.326667 -0.672016 -0.0272597 0.999437 -0.0195508 164 167 152
0.416667 0.323333 -0.67162 0.0285824 0.996106 -0.083399 172 174 157
0.413333 0.326667 -0.671959 0.0179015 0.997188 -0.0727775 170 172 156
0.426667 0.323333 -0.671873 -0.0656711 0.996256 -0.0562309 173 175 157
0.423333 0.326667 -0.671933 -0.038472 0.995776 -0.0833713 173 174 158
0.436667 0.323333 -0.672395 -0.0153292 0.993192 -0.115473 172 174 156
0.433333 0.326667 -0.672532 -0.0749256 0.995605 -0.0561942 171 172 155
0.446667 0.323333 -0.672577 -0.0423381 0.996648 -0.0700083 172 174 155
0.443333 0.326667 -0.672823 0.00351633 0.993303 -0.115486 172 173 155
0.456667 0.323333 -0.673238 -0.078819 0.994605 -0.0674442 170 172 154
0.453333 0.326667 -0.673208 -0.0764 0.994626 -0.0698664 171 173 155
0.466667 0.323333 -0.6741 -0.0624546 0.990808 -0.119996 172 174 157
0.463333 0.326667 -0.674116 -0.115292 0.991056 -0.0672035 171 173 156
0.476667 0.323333 -0.675402 -0.235397 0.971259 0.0352648 168 171 154
0.473333 0.326667 -0.674997 -0.0840312 0.989235 -0.119805 170 173 156
0.406667 0.333333 -0.672218 -0.0272623 0.999531 -0.0139552 168 171 156
0.403333 0.336667 -0.672085 -0.0537813 0.998473 0.0126074 165 168 153
0.416667 0.333333 -0.672205 0.017946 0.999666 -0.0186019 171 173 157
0.413333 0.336667 -0.672311 0.0133032 0.999814 -0.0139592 171 174 158
0.426667 0.333333 -0.672248 -0.0385917 0.998872 0.0276711 171 173 156
0.423333 0.336667 -0.672182 0.00767362 0.999798 -0.0186043 172 174 157
0.436667 0.333333 -0.672857 -0.0750002 0.996596 0.0342306 170 171 154
0.433333 0.336667 -0.672513 -0.0684241 0.997274 0.0276268 171 173 155
0.446667 0.333333 -0.673226 0.0035399 0.99996 -0.00824704 170 172 155
0.443333 0.336667 -0.673123 -0.0390022 0.99865 0.0343012 170 172 155
0.456667 0.333333 -0.673833 -0.0765256 0.996261 -0.040087 171 173 155
0.453333 0.336667 -0.673604 -0.108161 0.9941 -0.00819871 171 173 155
0.466667 0.333333 -0.674661 -0.115529 0.993089 0.0206843 171 174 156
0.463333 0.336667 -0.674407 -0.0551386 0.997671 -0.0401437 171 173 155
0.476667 0.333333 -0.675174 -0.0836719 0.985005 0.150878 159 161 145
0.473333 0.336667 -0.674821 0.047338 0.998662 0.0208004 161 163 146
0.406667 0.343333 -0.672165 -0.0537775 0.998403 0.0172911 169 171 155
0.403333 0.346667 -0.671947 -0.0481357 0.998773 0.0116358 165 167 151
0.416667 0.343333 -0.672255 0.0133025 0.999759 0.0174366 172 174 158
0.413333 0.346667 -0.672242 0.0134245 0.99976 0.0173146 173 175 159
0.426667 0.343333 -0.67204 0.00766404 0.99855 0.0532826 172 174 157
0.423333 0.346667 -0.672007 0.0435464 0.998899 0.0174216 172 174 157
0.436667 0.343333 -0.672473 -0.0683551 0.996267 0.0527124 172 174 156
0.433333 0.346667 -0.672067 -0.0687998 0.996213 0.0531579 173 175 157
0.446667 0.343333 -0.673086 -0.0390202 0.999111 0.0159541 171 173 155
0.443333 0.346667 -0.672779 -0.0756726 0.99574 0.0526845 172 174 156
0.456667 0.343333 -0.673698 -0.107744 0.990265 0.088123 171 173 155
0.453333 0.346667 -0.673282 -0.0357544 0.999233 0.0159561 171 173 155
0.466667 0.343333 -0.674417 -0.0549495 0.99425 0.0919138 170 172 154
0.463333 0.346667 -0.673936 -0.0515387 0.99474 0.0885212 171 172 154
0.476667 0.343333 -0.674373 0.0472452 0.996703 0.0659592 153 155 139
0.473333 0.346667 -0.674223 0.021039 0.995534 0.0920325 163 164 147
0.406667 0.353333 -0.672038 -0.0481371 0.998801 0.00893855 168 171 154
0.403333 0.356667 -0.671809 -0.0598846 0.99799 0.0207179 162 165 149
0.416667 0.353333 -0.672221 0.0134225 0.999612 -0.0244275 170 173 156
0.413333 0.356667 -0.672236 -0.0199537 0.999761 0.00894714 170 173 156
0.426667 0.353333 -0.671632 0.0434952 0.997726 0.0514955 170 172 156
0.423333 0.356667 -0.671859 0.118762 0.992626 -0.0242568 168 170 155
0.436667 0.353333 -0.671995 -0.0688497 0.996937 0.0371098 171 173 155
0.433333 0.356667 -0.671593 -0.0830515 0.995221 0.0513662 169 171 154
0.446667 0.353333 -0.672769 -0.0757521 0.996786 0.0260771 171 173 155
0.443333 0.356667 -0.672391 -0.0866714 0.995547 0.0370581 170 172 154
0.456667 0.353333 -0.673114 -0.0356712 0.996908 0.0700114 170 171 154
0.453333 0.356667 -0.672907 0.0082824 0.999624 0.0261513 169 171 153
0.466667 0.353333 -0.673414 -0.0513763 0.991606 0.118655 169 170 153
0.463333 0.356667 -0.673007 -0.00237452 0.99754 0.0700558 168 169 153
0.476667 0.353333 -0.673211 0.0207578 0.982226 0.18655 154 155 140
0.473333 0.356667 -0.672883 0.0903813 0.988853 0.118326 160 161 145
0.406667 0.363333 -0.671962 -0.0598961 0.998182 -0.00665597 167 170 153
0.403333 0.366667 -0.671701 -0.0845138 0.996258 0.01809 163 166 150
0.416667 0.363333 -0.672227 -0.0199527 0.999709 0.0135687 166 169 152
0.413333 0.366667 -0.672183 0.000282281 0.999978 -0.00666794 169 171 155
0.426667 0.363333 -0.67187 0.118232 0.9882 -0.0973784 162 164 148
0.423333 0.366667 -0.672223 0.00752931 0.99988 0.0135711 160 163 146
0.436667 0.363333 -0.672065 -0.0826676 0.990621 -0.108795 161 164 148
0.433333 0.366667 -0.672115 -0.0938613 0.990786 -0.0976333 156 159 143
0.446667 0.363333 -0.672586 -0.0867278 0.996196 -0.00852001 162 165 147
0.443333 0.366667 -0.672662 0.0141272 0.993924 -0.109158 156 159 142
0.456667 0.363333 -0.673063 0.00825801 0.996679 -0.0810061 165 167 149
0.453333 0.366667 -0.673119 -0.0643022 0.997894 -0.00853454 160 163 144
0.466667 0.363333 -0.672953 -0.00237719 0.998665 -0.0516049 167 168 152
0.463333 0.366667 -0.673216 0.0271222 0.996347 -0.080979 164 167 149
0.476667 0.363333 -0.673381 0.085664 0.937242 -0.337994 155 156 141
0.473333 0.366667 -0.673858 -0.212309 0.9759 -0.0504286 163 165 147
0.406667 0.373333 -0.671851 -0.0845077 0.996186 0.0217368 167 169 154
0.403333 0.376667 -0.671719 -0.0177327 0.99882 -0.0452042 165 167 152
0.416667 0.373333 -0.672333 0.000282076 0.99925 -0.038713 170 172 155
0.413333 0.376667 -0.672262 -0.0601564 0.997951 0.0217754 172 173 157
0.426667 0.373333 -0.672275 0.00752498 0.999305 -0.0364965 163 165 149
0.423333 0.376667 -0.672429 0.00974259 0.999203 -0.0387112 169 172 155
0.436667 0.373333 -0.672771 -0.0943113 0.995537 -0.00351664 155 157 142
0.433333 0.376667 -0.672577 -0.0615864 0.997437 -0.0364283 162 165 149
0.446667 0.373333 -0.673087 0.0142048 0.999386 -0.032039 160 162 145
0.443333 0.376667 -0.673147 -0.0143112 0.999891 -0.00353203 163 166 150
0.456667 0.373333 -0.673413 -0.0642973 0.997819 -0.0149438 161 164 145
0.453333 0.376667 -0.673305 -0.0472784 0.998369 -0.0320064 167 170 152
0.466667 0.373333 -0.673545 0.0271844 0.998632 -0.0446623 167 169 151
0.463333 0.376667 -0.673686 -0.00252504 0.999885 -0.0149748 169 171 152
0.476667 0.373333 -0.674321 -0.21087 0.969287 0.126559 153 156 139
0.473333 0.376667 -0.673744 -0.0421794 0.998112 -0.0446391 160 162 145
0.406667 0.383333 -0.671958 -0.0177501 0.999803 -0.00892463 168 170 154
0.403333 0.386667 -0.671882 -0.0318514 0.999479 0.00518529 169 171 155
0.416667 0.383333 -0.672424 -0.0601674 0.998134 -0.0103947 169 171 155
0.413333 0.386667 -0.672253 -0.0616476 0.998058 -0.00890906 167 169 154
0.426667 0.383333 -0.672703 0.00973608 0.998534 -0.0532361 172 174 157
0.423333 0.386667 -0.672771 -0.0331297 0.999397 -0.0104078 170 172 155
0.436667 0.383333 -0.673025 -0.0615876 0.997456 -0.0359039 164 167 152
0.433333 0.386667 -0.672997 -0.0443194 0.997601 -0.0531863 167 170 153
0.446667 0.383333 -0.673273 -0.0143084 0.999698 -0.0199982 171 173 157
0.443333 0.386667 -0.673345 0.00167738 0.999351 -0.0359721 164 167 151
0.456667 0.383333 -0.673574 -0.0473026 0.99888 -0.0012803 172 175 157
0.453333 0.386667 -0.673483 -0.0286157 0.999391 -0.0199921 173 175 158
0.466667 0.383333 -0.673844 -0.00252418 0.999547 -0.0300004 171 174 156
0.463333 0.386667 -0.67384 -0.0312423 0.999511 -0.00128111 169 172 154
0.476667 0.383333 -0.67399 -0.0422177 0.999019 0.0133917 152 153 136
0.473333 0.386667 -0.673949 0.00115915 0.999549 -0.0300005 161 163 146
0.406667 0.393333 -0.672017 -0.0318487 0.999396 -0.0138695 168 170 154
0.403333 0.396667 -0.672008 -0.0166838 0.999439 -0.0290364 167 169 153
0.416667 0.393333 -0.672382 -0.0616185 0.997586 0.0320118 169 171 155
0.413333 0.396667 -0.672222 -0.015797 0.999779 -0.0138748 169 170 154
0.426667 0.393333 -0.672964 -0.0331281 0.999349 -0.014311 168 170 155
0.423333 0.396667 -0.672746 -0.0792682 0.996341 0.0319718 169 171 156
0.436667 0.393333 -0.673305 -0.0443816 0.999 0.00535048 164 167 150
0.433333 0.396667 -0.673204 -0.0247396 0.999592 -0.0143145 168 169 153
0.446667 0.393333 -0.673479 0.00167844 0.999982 -0.00572957 167 170 153
0.443333 0.396667 -0.673466 -0.00940649 0.999941 0.00535552 164 166 150
0.456667 0.393333 -0.673682 -0.0286196 0.999528 -0.0111489 169 171 154
0.453333 0.396667 -0.673606 -0.0340373 0.999404 -0.00572626 170 172 155
0.466667 0.393333 -0.673973 -0.0312415 0.999485 -0.00725182 167 169 152
0.463333 0.396667 -0.673906 -0.0273471 0.999564 -0.0111493 166 168 151
0.476667 0.393333 -0.673738 0.00115478 0.995785 0.0917063 149 150 133
0.473333 0.396667 -0.673766 0.100003 0.994961 -0.00721899 156 158 141
0.538007 1.69518 -1.02901 -0.455763 0.741721 0.492067 90 81 69
0.534674 1.69333 -1.02796 -0.528447 0.674453 0.515613 89 80 68
0.533333 1.69667 -1.02661 -0.107721 0.9902 0.0888802 87 77 66
0.546667 1.69726 -1.02972 -0.0153824 0.97543 0.219773 89 79 67
0.543333 1.69851 -1.02873 -0.173369 0.820681 0.54445 88 78 66
0.555682 1.69208 -1.0296 0.347878 0.851187 0.393017 92 83 71
0.553333 1.69541 -1.02932 0.246941 0.945333 0.212992 90 80 68
0.556667 1.69667 -1.02884 0.0567578 0.998169 0.020912 89 79 67
0.486667 1.70724 -0.963333 0.0691573 -0.142142 0.987427 106 93 77
0.483333 1.70774 -0.966667 0.00839415 -0.0820559 0.996592 102 90 75
0.496667 1.70813 -0.963333 -0.151778 -0.165161 0.974518 108 95 79
0.493333 1.70809 -0.966667 -0.176605 -0.140243 0.974239 105 93 78
0.503641 1.70936 -0.963333 -0.241867 -0.10606 0.964496 108 95 79
0.501089 1.70929 -0.966667 -0.0675555 -0.166715 0.983688 107 95 80
0.5285 1.70954 -0.968788 0.27385 0.339154 0.899989 106 93 78
0.536667 1.7094 -0.968088 -0.0919086 0.076808 0.992801 106 95 79
0.533333 1.70954 -0.966876 0.0739547 0.351669 0.933199 107 94 79
0.540366 1.70985 -0.968088 -0.373882 0.0715404 0.924713 107 96 80
0.486667 1.70865 -0.973333 0.00826077 -0.195056 0.980757 94 82 70
0.483333 1.70903 -0.976667 -0.084495 -0.104243 0.990956 88 76 65
0.496667 1.70886 -0.973333 -0.177625 0.091145 0.979868 96 85 72
0.493333 1.70892 -0.976667 0.107868 -0.193925 0.975068 88 76 66
0.504035 1.70993 -0.973333 -0.0684645 0.0381261 0.996925 100 88 75
0.502946 1.70954 -0.976667 -0.129009 0.0918438 0.987381 91 80 68
0.5285 1.70954 -0.971792 0.282823 -0.236809 0.92948 101 89 75
0.535735 1.70982 -0.978459 0.185179 -0.288588 0.939375 88 77 67
0.533333 1.70936 -0.975125 0.165227 -0.243495 0.955725 94 83 71
0.536667 1.70921 -0.973333 -0.0921757 0.0106351 0.995686 98 87 74
0.54359 1.70985 -0.973333 -0.356865 0.305976 0.882625 99 89 75
0.543224 1.70967 -0.976667 -0.0568422 0.0106633 0.998326 92 82 70
0.489601 1.70998 -0.984049 -0.146178 -0.022281 0.989007 84 72 62
0.486268 1.70949 -0.986667 -0.167501 -0.0248167 0.985559 87 74 63
0.483333 1.70918 -0.983333 -0.0848089 0.0591902 0.994638 86 73 63
0.493333 1.7096 -0.980716 0.109928 -0.0223864 0.993688 82 70 61
0.496667 1.70962 -0.982426 0.0653776 -0.219037 0.973524 82 70 61
0.502946 1.70962 -0.981711 -0.126448 -0.217745 0.96778 83 71 62
0.539069 1.70982 -0.980422 0.177886 -0.392514 0.90238 84 74 65
0.543224 1.70982 -0.980422 -0.052141 -0.398333 0.915758 85 75 64
0.48403 1.7095 -0.993333 -0.166842 -0.0920562 0.981677 88 75 64
0.481095 1.70935 -0.996667 -0.133076 -0.103746 0.985661 88 75 63
0.50984 1.70997 -0.999913 0.184443 0.340651 0.921921 87 74 64
0.516667 1.70985 -0.999607 0.0239487 0.281192 0.959353 87 74 64
0.513333 1.70997 -0.99952 0.0318533 0.346422 0.937538 87 74 64
0.520641 1.70988 -0.999607 -0.169955 0.27718 0.945667 87 74 64
0.481095 1.70985 -1.00189 -0.133395 -0.0774784 0.98803 89 76 64
0.498594 1.70992 -1.00947 0.058974 0.156391 0.985933 98 86 72
0.50984 1.70997 -1.0005 0.195794 -0.0624106 0.978657 88 75 64
0.501331 1.70992 -1.00947 -0.06226 0.156359 0.985736 98 86 73
0.513333 1.70985 -1.0005 0.024905 -0.0636226 0.997663 88 75 65
0.516667 1.70988 -1.00165 0.0193531 -0.0998012 0.994819 90 76 66
0.52942 1.70997 -1.00971 0.0513753 0.102618 0.993393 98 86 73
0.520641 1.70988 -1.00115 -0.17603 -0.0982612 0.979468 89 76 65
0.530436 1.70997 -1.00971 -0.0683065 0.102514 0.992384 98 86 73
0.557217 1.70921 -1.00859 0.241327 0.477607 0.84478 96 82 70
0.481265 1.70885 -1.0171 -0.646709 0.281979 0.7087 90 77 65
0.498594 1.70992 -1.01014 0.0507154 -0.527781 0.847865 99 87 73
0.501331 1.70992 -1.01014 -0.053544 -0.527703 0.84774 99 87 73
0.52942 1.70997 -1.01016 0.0507974 -0.180621 0.98224 98 86 73
0.530436 1.70997 -1.01016 -0.0675411 -0.180441 0.981264 98 86 73
0.557217 1.70921 -1.01163 0.248622 -0.425134 0.870315 98 84 71
0.526667 1.70333 -1.02501 0.113868 0.920778 0.373097 88 76 65
0.523333 1.70667 -1.0239 0.0644061 0.907334 0.415448 87 75 64
0.536667 1.70333 -1.02566 -0.103497 0.951367 0.290153 86 75 63
0.533333 1.70667 -1.02395 -0.190167 0.909894 0.368686 86 74 63
0.546667 1.70333 -1.02712 -0.192585 0.911646 0.36306 86 75 63
0.543333 1.70667 -1.0254 -0.112145 0.95047 0.289879 85 74 61
0.556667 1.70333 -1.02662 0.0476896 0.838692 0.542515 89 77 65
0.553333 1.70667 -1.02548 0.273015 0.893743 0.35593 88 76 64
0.507756 1.71042 -0.966667 -0.0697217 0.0323138 0.997043 107 94 79
0.506974 1.71026 -0.963333 -0.317687 -0.139308 0.937906 107 95 79
0.516667 1.71184 -0.963333 -0.161255 0.0122421 0.986837 108 95 79
0.513333 1.71119 -0.966667 -0.18031 0.0318617 0.983094 107 94 79
0.525166 1.71077 -0.968788 0.34867 0.431815 0.831844 106 93 78
0.526667 1.71177 -0.965455 0.341392 0.39989 0.850611 107 94 79
0.523333 1.71258 -0.963333 -0.0562723 0.0123848 0.998339 108 95 79
0.533333 1.711 -0.963543 0.0891148 0.423757 0.901381 108 96 79
0.536667 1.71112 -0.961421 0.253929 0.0809431 0.96383 109 97 80
0.540366 1.71012 -0.964754 -0.400709 0.0766736 0.912991 108 97 80
0.543699 1.71126 -0.966667 -0.358669 0.0726897 0.93063 108 97 80
0.546667 1.71172 -0.963333 -0.0988702 -0.200641 0.974663 110 97 80
0.556667 1.71309 -0.963333 -0.205281 -0.0903504 0.974524 110 96 80
0.553333 1.71307 -0.966667 -0.0950686 -0.200715 0.975026 109 97 80
0.509612 1.71022 -0.976667 -0.15383 0.0286045 0.987683 94 81 70
0.507368 1.71016 -0.973333 -0.0697056 0.0388172 0.996812 100 87 75
0.516667 1.71124 -0.973333 -0.178838 0.131376 0.975068 100 87 74
0.513333 1.71054 -0.976667 -0.0773715 0.0288623 0.996584 94 81 70
0.5285 1.71056 -0.975125 0.375515 -0.31442 0.871854 95 83 71
0.525166 1.71132 -0.973333 0.367336 -0.311492 0.876377 99 86 74
0.523333 1.71164 -0.976667 -0.0702048 0.133199 0.9886 92 80 69
0.532402 1.71056 -0.978459 0.212704 -0.331484 0.919171 88 77 67
0.549891 1.71115 -0.976667 -0.0802902 0.321119 0.943629 94 82 69
0.546923 1.71114 -0.973333 -0.343655 0.29465 0.891674 100 89 75
0.556667 1.71312 -0.973333 -0.0933053 0.274878 0.956941 103 91 75
0.553333 1.71166 -0.976667 -0.141105 0.318935 0.937214 95 84 70
0.489601 1.71008 -0.987382 -0.203585 -0.0310312 0.978565 86 73 63
0.496667 1.71056 -0.98576 0.0963958 -0.322959 0.941491 83 71 61
0.493333 1.71064 -0.987382 -0.140608 -0.0313801 0.989568 84 72 62
0.506279 1.71006 -0.981711 -0.148758 -0.256164 0.955118 86 73 64
0.503333 1.71062 -0.985044 -0.180624 -0.319133 0.930338 85 72 62
0.506667 1.7117 -0.986667 -0.148616 -0.289397 0.945602 85 73 63
0.516667 1.71141 -0.983333 -0.075724 -0.207199 0.975364 85 73 63
0.513333 1.71217 -0.986667 0.0152748 -0.292613 0.956109 85 72 63
0.526667 1.71188 -0.983333 -0.070195 -0.134221 0.988462 84 72 63
0.523333 1.71236 -0.986667 0.00550751 -0.207793 0.978157 82 70 61
0.539069 1.71121 -0.983755 0.171213 -0.37779 0.909923 82 72 63
0.535735 1.71176 -0.983333 0.208137 -0.384303 0.899439 83 72 63
0.533333 1.71277 -0.986667 -0.0594224 -0.134315 0.989155 81 69 61
0.546557 1.71001 -0.980422 -0.0711588 -0.54362 0.83631 85 75 64
0.543333 1.71122 -0.983755 -0.0510581 -0.382952 0.922356 83 72 62
0.546667 1.71269 -0.986667 -0.073103 -0.401593 0.912896 80 69 60
0.556667 1.71176 -0.983333 -0.145562 -0.209971 0.966811 85 73 63
0.553333 1.71272 -0.986667 0.0659205 -0.401794 0.913354 80 68 59
0.487762 1.71044 -0.996667 -0.158469 -0.0819017 0.983961 86 74 63
0.487363 1.71008 -0.993333 -0.202408 -0.11168 0.972912 87 74 63
0.496667 1.71122 -0.993333 -0.140674 -0.00687354 0.990032 86 73 62
0.493333 1.71102 -0.996667 -0.0654287 -0.0827721 0.994418 87 74 63
0.506507 1.71058 -0.999913 0.170585 0.315057 0.933616 87 74 64
0.506667 1.71166 -0.99658 0.170707 0.311151 0.934903 86 74 63
0.503333 1.71222 -0.993333 -0.155256 -0.0068584 0.98785 85 72 62
0.513333 1.71108 -0.996187 0.0290241 0.315653 0.948431 86 73 64
0.516667 1.71211 -0.99294 0.0150801 0.329807 0.943928 84 71 62
0.520641 1.71103 -0.996273 -0.198233 0.323299 0.925301 85 72 62
0.523975 1.71163 -0.996667 -0.207616 0.324355 0.92287 84 72 61
0.526667 1.71264 -0.993333 0.00558973 0.11999 0.992759 81 69 60
0.536667 1.71352 -0.993333 -0.05994 -0.0293229 0.997771 81 69 60
0.533333 1.71292 -0.996667 -0.204399 0.117458 0.971815 83 71 61
0.546667 1.71445 -0.993333 -0.0795162 -0.0875315 0.992983 80 68 60
0.543333 1.71428 -0.996667 -0.137462 -0.0290969 0.99008 83 71 62
0.556667 1.71386 -0.993333 0.0719651 0.0245868 0.997104 79 67 59
0.553333 1.7144 -0.996667 0.181217 -0.0863557 0.979644 82 70 61
0.484428 1.71036 -1.00189 -0.158329 -0.0919604 0.983095 88 76 65
0.483333 1.71059 -1.00522 -0.190614 -0.151558 0.969895 93 80 68
0.486667 1.71077 -1.00667 0.0135747 0.0537806 0.998461 94 81 69
0.495261 1.71018 -1.00947 0.0906963 0.240514 0.966399 97 85 71
0.496667 1.71076 -1.00614 0.085047 0.201802 0.975727 94 81 68
0.493333 1.71112 -1.00333 -0.0655593 0.0536698 0.996404 90 78 66
0.501331 1.71058 -1.00614 -0.0803857 0.20188 0.976106 94 82 69
0.504664 1.71078 -1.00667 -0.099522 0.208955 0.972848 95 82 70
0.506507 1.71058 -1.0005 0.179444 -0.0571992 0.982104 87 75 64
0.506667 1.71078 -1.00384 0.181304 -0.0709692 0.980863 91 79 67
0.516667 1.71027 -1.00498 0.0235182 -0.12128 0.99234 94 81 69
0.513333 1.71047 -1.00717 -0.0185944 -0.0721528 0.99722 96 83 71
0.523975 1.71061 -1.00115 -0.217854 -0.121607 0.968376 88 75 64
0.523333 1.71087 -1.00448 -0.216869 -0.118426 0.968991 92 80 67
0.52942 1.71061 -1.00638 0.0972645 0.194278 0.976113 93 81 69
0.526086 1.71087 -1.00667 0.0946899 0.19389 0.976443 94 82 69
0.530436 1.71061 -1.00638 -0.128981 0.193573 0.972571 93 81 69
0.533769 1.71093 -1.00667 -0.11002 0.191587 0.97529 94 81 69
0.536667 1.71224 -1.00333 -0.197802 0.276455 0.94045 89 77 65
0.546667 1.71324 -1.00333 -0.124112 0.430701 0.89392 90 77 67
0.543333 1.7118 -1.00667 0.0469698 0.281716 0.958347 94 81 69
0.553884 1.71016 -1.00859 0.248032 0.490875 0.835178 96 82 70
0.556667 1.71132 -1.00526 0.250411 0.497023 0.83082 91 78 67
0.553333 1.71309 -1.00333 0.164381 0.428152 0.888631 89 76 66
0.481265 1.71023 -1.01377 -0.72843 0.317611 0.607053 94 81 69
0.484598 1.71224 -1.01667 -0.665834 0.29905 0.683545 93 81 68
0.486667 1.71242 -1.01333 0.0119109 -0.48201 0.876085 97 84 71
0.498594 1.71235 -1.01347 0.0568688 -0.591816 0.804064 98 86 72
0.495261 1.71254 -1.01333 0.0750199 -0.596149 0.799361 97 85 71
0.493333 1.71455 -1.01667 -0.088792 -0.48014 0.872686 96 84 70
0.504664 1.7102 -1.01014 -0.0718541 -0.708157 0.702389 99 87 73
0.503333 1.71256 -1.01347 -0.0733089 -0.591181 0.803201 98 86 72
0.506667 1.715 -1.01667 -0.0210626 -0.556561 0.830539 98 86 72
0.516667 1.71156 -1.01333 -0.0180956 -0.240544 0.970469 97 84 71
0.513333 1.71374 -1.01667 0.317896 -0.527807 0.787631 96 84 71
0.52942 1.712 -1.0135 0.148189 -0.526919 0.836897 97 85 72
0.526086 1.71226 -1.01333 0.0822988 -0.522493 0.848662 98 85 72
0.523333 1.71336 -1.01667 -0.254236 -0.232679 0.938736 95 83 70
0.533769 1.71033 -1.01016 -0.107385 -0.286886 0.951927 98 86 72
0.533333 1.71232 -1.0135 -0.108418 -0.529661 0.841252 97 84 71
0.536667 1.71435 -1.01667 -0.00796634 -0.454081 0.890925 96 84 70
0.546667 1.71288 -1.01333 0.0407178 -0.555103 0.830784 99 86 73
0.543333 1.71474 -1.01667 -0.0970824 -0.451951 0.886744 98 85 72
0.557217 1.71059 -1.01496 0.187783 -0.321102 0.928241 98 84 71
0.553884 1.71075 -1.01333 0.263653 -0.37728 0.887777 98 85 72
0.553333 1.71314 -1.01667 0.409714 -0.506793 0.758482 99 86 72
0.487932 1.71202 -1.02083 -0.346668 0.86785 0.35589 90 78 65
0.493333 1.71202 -1.02292 -0.331283 0.872979 0.357993 91 79 66
0.496667 1.71437 -1.02209 -0.0674198 0.745905 0.662631 94 82 68
0.503333 1.71235 -1.02437 -0.0419429 0.746948 0.663558 92 80 66
0.506667 1.71479 -1.02228 -0.0173108 0.730586 0.682601 95 83 69
0.513333 1.71244 -1.02315 0.295002 0.698177 0.652321 91 79 66
0.516667 1.71353 -1.02087 0.243743 0.758872 0.603906 91 80 67
0.523333 1.71109 -1.0215 0.0554574 0.781267 0.621728 87 75 64
0.526667 1.71309 -1.02063 -0.081639 0.949983 0.301442 90 78 66
0.533333 1.712 -1.02196 -0.195372 0.934796 0.296623 88 76 64
0.536667 1.71402 -1.02133 -0.00490739 0.835923 0.548824 91 79 67
0.546395 1.71333 -1.02639 -0.105255 0.89208 -0.439447 84 72 60
0.549729 1.71633 -1.02839 -0.507581 0.758945 -0.407878 83 71 60
0.543062 1.71536 -1.02466 -0.752999 0.550063 0.361143 88 76 64
0.549729 1.71906 -1.02596 -0.657857 -0.25403 0.709009 90 77 65
0.546395 1.71775 -1.02333 -0.104526 -0.278495 0.954733 93 81 68
0.553799 1.71631 -1.02333 0.453277 -0.300673 0.839128 94 81 68
0.550466 1.71906 -1.02596 0.453145 -0.300675 0.839198 90 78 65
0.557133 1.71392 -1.02404 0.828558 0.359361 0.429362 91 78 66
0.550466 1.71633 -1.02839 0.32431 0.833242 -0.447807 83 71 60
0.553799 1.71333 -1.02576 0.261013 0.854453 -0.449203 86 74 62
0.549729 1.71966 -1.0301 -0.331341 0.905163 -0.266257 83 71 60
0.550466 1.71966 -1.0301 0.200233 0.939928 -0.276483 83 71 60
0.549729 1.72019 -1.0293 -0.550878 -0.21272 0.807021 84 72 61
0.550466 1.72019 -1.0293 0.358584 -0.237931 0.902666 85 72 61
0.549729 1.72019 -1.0301 -0.307018 0.838716 0.449773 83 71 60
0.550466 1.72019 -1.0301 0.184516 0.866146 0.464483 83 71 60
0.566667 0.563333 -0.683769 -0.137382 0.98652 -0.0889111 165 167 161
0.563333 0.566667 -0.683421 -0.190741 0.981041 -0.0342951 168 170 164
0.576667 0.563333 -0.684647 -0.037434 0.989823 -0.137291 165 166 159
0.573333 0.566667 -0.684821 -0.0857297 0.992297 -0.0894318 165 167 161
0.586667 0.563333 -0.68527 -0.0792594 0.988833 -0.126199 167 169 160
0.583333 0.566667 -0.685466 -0.0682619 0.988207 -0.137067 167 168 160
0.596667 0.563333 -0.68614 -0.135797 0.990164 -0.0336773 164 165 154
0.593333 0.566667 -0.686108 -0.0431429 0.991031 -0.12648 168 169 159
0.606667 0.563333 -0.68738 -0.0705588 0.989651 -0.124952 161 164 151
0.603333 0.566667 -0.687255 -0.161309 0.986334 -0.033547 163 165 152
0.616667 0.563333 -0.687839 -0.0256552 0.989895 -0.139461 160 162 150
0.613333 0.566667 -0.688173 -0.0401908 0.991322 -0.125163 162 165 152
0.626667 0.563333 -0.688778 -0.169242 0.984198 -0.0520813 161 163 151
0.623333 0.566667 -0.688675 -0.0828845 0.986814 -0.139027 161 163 150
0.636667 0.563333 -0.689359 0.0230085 0.994645 -0.100753 166 166 154
0.633333 0.566667 -0.689612 -0.0252024 0.998286 -0.0528268 164 165 152
0.566667 0.573333 -0.684322 -0.190699 0.980825 -0.0401917 170 172 167
0.563333 0.576667 -0.683923 -0.158181 0.984662 -0.0736138 173 174 170
0.576667 0.573333 -0.685556 -0.0859927 0.99534 -0.043619 167 169 164
0.573333 0.576667 -0.685404 -0.0888138 0.995213 -0.0407813 169 171 166
0.586667 0.573333 -0.686224 -0.0688988 0.997426 -0.0198386 168 169 162
0.583333 0.576667 -0.68614 -0.045054 0.998027 -0.0437368 168 169 163
0.596667 0.573333 -0.686937 -0.043362 0.996065 -0.0772932 167 168 157
0.593333 0.576667 -0.686858 -0.100707 0.994719 -0.0197848 168 169 160
0.606667 0.573333 -0.688134 -0.161057 0.984797 -0.0650886 168 170 158
0.603333 0.576667 -0.687848 -0.149871 0.985742 -0.0764922 168 170 158
0.616667 0.573333 -0.689025 -0.0403512 0.995278 -0.0882805 165 168 155
0.613333 0.576667 -0.68911 -0.0628863 0.995848 -0.065819 169 171 160
0.624503 0.577864 -0.689917 -0.0704822 0.994953 -0.071418 168 169 158
0.626667 0.574531 -0.689819 -0.0770662 0.993669 -0.0817437 166 168 155
0.623333 0.573333 -0.68944 -0.0833723 0.992621 -0.0880449 164 167 154
0.636667 0.570126 -0.689887 -0.0250742 0.993208 -0.113619 165 166 153
0.633333 0.571323 -0.689901 -0.0263582 0.996287 -0.0819591 165 167 153
0.627836 0.577864 -0.690179 -0.0822783 0.993116 -0.0833707 169 170 158
0.633333 0.574657 -0.690179 -0.0268937 0.996134 -0.0836241 168 169 156
0.636667 0.576792 -0.69054 -0.0539032 0.992304 -0.111477 168 170 157
0.566667 0.583333 -0.684413 -0.158008 0.983589 0.0870936 175 177 173
0.563333 0.586667 -0.683494 -0.182628 0.976758 0.112206 175 178 175
0.576667 0.583333 -0.685795 -0.0888804 0.995959 0.0128568 170 173 168
0.573333 0.586667 -0.685203 -0.162065 0.982934 0.0870356 173 175 171
0.586667 0.583333 -0.686491 -0.0450912 0.998849 -0.0163615 169 170 165
0.583333 0.586667 -0.686298 -0.0742209 0.997159 0.0128723 169 172 167
0.596667 0.583333 -0.687184 -0.1007 0.994644 0.0232892 168 169 161
0.593333 0.586667 -0.686901 -0.0613233 0.997984 -0.0163473 169 171 164
0.606667 0.583333 -0.688591 -0.150308 0.988617 0.00663744 172 174 164
0.603333 0.586667 -0.688006 -0.166336 0.985799 0.0230746 171 173 164
0.615441 0.587679 -0.689684 -0.147715 0.985948 -0.0780198 173 175 168
0.616667 0.584345 -0.689601 -0.149512 0.985464 -0.0806649 171 173 165
0.613333 0.583333 -0.689308 -0.0630215 0.99799 0.00670037 172 175 165
0.621169 0.581012 -0.689917 -0.0704283 0.994192 -0.0813793 169 171 161
0.618774 0.587679 -0.690193 -0.155207 0.984475 -0.0819767 172 174 168
0.621169 0.584345 -0.690193 -0.0716311 0.993991 -0.0827691 171 172 164
0.624503 0.583333 -0.690373 -0.0822567 0.992856 -0.0864305 171 172 163
0.626667 0.586667 -0.690861 -0.087768 0.991889 -0.0919377 172 174 166
0.636667 0.583333 -0.690944 -0.0542367 0.998442 -0.0131173 171 172 161
0.633333 0.586667 -0.691072 0.0251148 0.995418 -0.0922648 172 174 164
0.566667 0.593333 -0.683694 -0.183776 0.982896 0.0118933 176 178 176
0.563333 0.596667 -0.68356 -0.0280327 0.989046 -0.144925 176 179 177
0.576667 0.593333 -0.685567 -0.162596 0.986157 -0.0325178 174 176 174
0.573333 0.596667 -0.684977 -0.205459 0.978594 0.0118412 176 179 177
0.586667 0.593333 -0.686889 -0.0737363 0.990648 -0.114799 171 174 169
0.583333 0.596667 -0.686751 -0.155346 0.987323 -0.0325562 173 176 173
0.596667 0.593333 -0.687235 -0.0613162 0.997869 -0.0222913 170 173 167
0.593333 0.596667 -0.687417 0.0318673 0.992848 -0.115054 172 175 170
0.606667 0.593333 -0.688547 -0.166357 0.985923 -0.016759 175 178 172
0.603333 0.596667 -0.688059 -0.161221 0.986672 -0.0220336 174 176 172
0.612107 0.593333 -0.689425 -0.148146 0.988823 -0.0168008 177 179 174
0.614477 0.596667 -0.689741 -0.108692 0.994039 0.00854591 177 180 176
0.61781 0.596667 -0.690111 -0.11413 0.993425 0.00897341 176 180 175
0.618774 0.593333 -0.690304 -0.155685 0.987504 0.0244556 175 177 172
0.626667 0.593333 -0.691239 -0.0881223 0.995893 -0.0207959 174 176 170
0.623333 0.596667 -0.690862 -0.132902 0.990825 0.0245378 175 178 173
0.636667 0.593333 -0.691817 0.0249213 0.987748 -0.154057 173 175 168
0.633333 0.596667 -0.69197 -0.109175 0.993806 -0.0207523 174 176 171
0.566667 0.603333 -0.684638 -0.0280242 0.988745 -0.146963 179 182 181
0.563333 0.606667 -0.684686 -0.132919 0.990223 -0.0423295 180 183 182
0.576667 0.603333 -0.685807 -0.205216 0.977438 -0.0500158 179 182 181
0.573333 0.606667 -0.685603 -0.110583 0.983067 -0.146119 182 185 184
0.586667 0.603333 -0.687105 -0.154895 0.984452 0.0828363 175 178 176
0.583333 0.606667 -0.686751 -0.021992 0.998452 -0.0510911 179 182 181
0.596667 0.603333 -0.687633 0.0320746 0.999307 0.0188773 173 176 173
0.593333 0.606667 -0.687459 -0.0330226 0.995935 0.0838025 175 178 176
0.606667 0.603333 -0.68857 -0.161178 0.986409 0.031924 179 182 180
0.603333 0.606667 -0.687963 -0.148242 0.988775 0.0186783 177 180 179
0.612369 0.603333 -0.689374 -0.10864 0.993561 0.0321479 182 185 183
0.614869 0.606667 -0.689633 -0.145222 0.989383 0.00568603 183 186 185
0.618202 0.606667 -0.690116 -0.137918 0.990429 0.00540003 182 185 183
0.619036 0.603333 -0.690227 -0.114134 0.993464 -0.00158412 180 183 180
0.626667 0.603333 -0.690986 -0.132604 0.988608 0.071201 178 181 177
0.623333 0.606667 -0.690545 -0.0604058 0.998173 -0.00159163 181 184 182
0.636667 0.603333 -0.692309 -0.109153 0.993602 0.0289957 176 177 175
0.633333 0.606667 -0.691702 -0.150564 0.986046 0.0710165 178 180 178
0.566667 0.613333 -0.685072 -0.132794 0.989293 0.0605402 184 187 188
0.563333 0.616667 -0.684694 -0.0522169 0.998421 -0.020704 184 187 190
0.576667 0.613333 -0.686367 -0.111727 0.993233 0.0317205 186 190 190
0.573333 0.616667 -0.685788 -0.140087 0.98829 0.0604788 187 191 192
0.586667 0.613333 -0.687429 -0.0218361 0.991377 -0.129209 181 185 184
0.583333 0.616667 -0.68725 -0.181154 0.982954 0.0313922 186 189 190
0.596667 0.613333 -0.687529 -0.0330539 0.996881 -0.0716675 176 180 180
0.593333 0.616667 -0.687853 0.0250639 0.991302 -0.129199 180 183 184
0.606667 0.613333 -0.688458 -0.148246 0.9888 -0.0172681 184 187 187
0.603333 0.616667 -0.688198 -0.0948221 0.992932 -0.0713836 182 185 185
0.6125 0.613333 -0.689324 -0.145203 0.989251 -0.017276 187 190 190
0.614579 0.616667 -0.689691 -0.146859 0.988984 -0.0185428 188 191 191
0.617912 0.616667 -0.69021 -0.164795 0.986108 -0.0208074 187 190 190
0.619166 0.613333 -0.690326 -0.137866 0.990061 -0.0277896 185 188 188
0.626667 0.613333 -0.691043 -0.0601768 0.994388 -0.0870105 183 185 185
0.623333 0.616667 -0.690935 -0.119049 0.992497 -0.027858 185 188 189
0.636667 0.613333 -0.691971 -0.150945 0.988542 -7.54198e-06 180 183 183
0.633333 0.616667 -0.691754 -0.064816 0.994099 -0.0869852 182 185 186
0.566667 0.623333 -0.685111 -0.0521573 0.997282 -0.0520432 187 190 194
0.563333 0.626667 -0.684949 -0.100351 0.994946 -0.00360565 187 190 196
0.576667 0.623333 -0.686157 -0.140281 0.98966 -0.0299076 189 192 196
0.573333 0.626667 -0.685858 -0.118772 0.991572 -0.0517453 188 192 197
0.586667 0.623333 -0.687659 -0.181167 0.983024 0.0290395 186 190 193
0.583333 0.626667 -0.687145 -0.123524 0.991889 -0.0299749 188 192 197
0.596667 0.623333 -0.688292 0.0252667 0.999323 -0.0267229 182 186 188
0.593333 0.626667 -0.688278 -0.0309699 0.999084 0.029514 184 188 192
0.605879 0.628859 -0.689462 -0.204693 0.968566 -0.141351 186 191 195
0.606667 0.625525 -0.689153 -0.203209 0.969568 -0.136545 188 192 195
0.603333 0.623333 -0.688526 -0.095031 0.995118 -0.0266105 185 188 190
0.612079 0.622192 -0.689691 -0.145479 0.979694 -0.137971 190 193 195
0.609212 0.628859 -0.690141 -0.174514 0.977252 -0.120511 188 193 198
0.612079 0.625525 -0.690141 -0.127988 0.98432 -0.121383 189 193 196
0.615412 0.623333 -0.69035 -0.163137 0.976191 -0.142961 188 192 194
0.616667 0.626667 -0.690689 -0.0591477 0.997505 -0.0385313 187 192 195
0.626667 0.623333 -0.691566 -0.118996 0.992054 -0.0408487 187 190 193
0.623333 0.626667 -0.691295 -0.121499 0.991852 -0.0383129 188 192 195
0.636667 0.623333 -0.692462 -0.0649482 0.996125 -0.0593015 185 188 191
0.633333 0.626667 -0.692381 -0.083197 0.995689 -0.0409984 187 191 195
0.566667 0.633333 -0.685555 -0.100055 0.992017 -0.0767521 187 191 199
0.563333 0.636667 -0.685722 -0.0268235 0.988422 -0.149343 188 192 202
0.576667 0.633333 -0.686888 -0.117849 0.983863 -0.134633 190 194 201
0.573333 0.636667 -0.686746 -0.175931 0.981469 -0.075936 189 193 201
0.586667 0.633333 -0.687844 -0.123398 0.99087 -0.0543167 187 192 198
0.583333 0.636667 -0.687885 -0.0420812 0.989889 -0.135457 190 194 202
0.596667 0.633333 -0.688584 -0.0308577 0.995467 -0.0899605 185 190 195
0.593333 0.636667 -0.688664 -0.0663052 0.996304 -0.0546146 186 191 198
0.609212 0.635138 -0.689858 -0.207795 0.973955 0.0907335 191 197 203
0.605879 0.633333 -0.68932 -0.205924 0.974392 0.0903099 188 193 199
0.603333 0.636667 -0.689083 -0.0281562 0.995547 -0.0899677 188 193 200
0.610936 0.638472 -0.689858 -0.149828 0.984449 0.0917112 193 199 207
0.609212 0.631805 -0.690141 -0.17528 0.981539 0.076536 189 194 200
0.614269 0.638472 -0.690446 -0.181652 0.977056 0.111191 192 198 206
0.613333 0.635138 -0.690587 -0.166615 0.983038 0.0766529 191 197 203
0.616667 0.633333 -0.690925 -0.0591611 0.997731 -0.0321458 189 194 200
0.626667 0.633333 -0.691621 -0.12135 0.990632 0.062625 190 195 200
0.623333 0.636667 -0.69132 -0.0270375 0.999116 -0.0321905 192 197 203
0.636667 0.633333 -0.692717 -0.0832428 0.996238 0.0240714 191 195 201
0.633333 0.636667 -0.692227 -0.121462 0.990619 0.0626241 193 198 204
0.726667 0.483333 -0.692784 -0.146365 0.989189 -0.00903366 149 149 137
0.723333 0.486667 -0.692202 -0.18089 0.983148 0.0264404 150 150 138
0.736667 0.483333 -0.694088 -0.102172 0.993682 -0.0464424 146 147 133
0.733333 0.486667 -0.693776 -0.139057 0.990243 -0.00904328 148 148 136
0.746667 0.483333 -0.694584 -0.00308602 0.996283 -0.0860818 146 146 132
0.743333 0.486667 -0.69473 -0.0426772 0.997999 -0.0466442 149 149 135
0.756667 0.483333 -0.693031 0.221957 0.972403 -0.0718812 138 137 126
0.753333 0.486667 -0.69408 0.23323 0.968812 -0.0837082 143 142 129
0.766667 0.483333 -0.693529 -0.251759 0.965433 0.067499 135 134 124
0.763333 0.486667 -0.692906 -0.115833 0.990566 -0.0732238 135 133 124
0.776667 0.483333 -0.695226 -0.0954324 0.995346 0.0133804 133 133 122
0.773333 0.486667 -0.694673 -0.150255 0.98624 0.0689537 132 132 121
0.786667 0.483333 -0.695958 -0.0433738 0.998787 -0.0233252 136 135 126
0.783333 0.486667 -0.695768 -0.079959 0.996708 0.0133987 135 134 124
0.796667 0.483333 -0.697046 -0.169882 0.98473 0.0380378 130 130 120
0.793333 0.486667 -0.696549 -0.109836 0.993679 -0.023206 134 133 123
0.726667 0.493333 -0.692603 -0.180836 0.982854 0.0360082 149 149 137
0.723333 0.496667 -0.691859 -0.183319 0.982297 0.0385733 148 148 136
